# .PCD v0.7 - Point Cloud Data file format
VERSION 0.7
FIELDS x y z rgb
SIZE 4 4 4 4
TYPE F F F F
COUNT 1 1 1 1
WIDTH 1022
HEIGHT 1
VIEWPOINT 0 0 0 1 0 0 0
POINTS 1022
DATA ascii
-0.012596637 -0.19478102 1.1740669 1.7124264e-38
-0.0078466665 -0.19728762 1.177 1.8439838e-38
-0.073034368 -0.18443981 1.177 2.3233657e-38
-0.064686552 -0.18537597 1.1746472 2.2126591e-38
-0.055600103 -0.1840184 1.1746001 1.8346216e-38
-0.021994606 -0.181554 1.1743335 1.5098097e-38
-0.016112383 -0.18598497 1.1750001 1.6028699e-38
0.019056192 -0.18495715 1.177 2.3232943e-38
0.023219731 -0.18463689 1.177 2.3139295e-38
0.033254921 -0.18122065 1.177 1.9392767e-38
-0.073547512 -0.17539074 1.1767501 2.1666332e-38
-0.065144911 -0.17562483 1.176158 1.9638029e-38
-0.05470499 -0.17510626 1.1768095 1.7518236e-38
-0.04538279 -0.17627335 1.1754616 1.5764716e-38
-0.036177676 -0.1726723 1.174778 7.3868678e-39
-0.022919524 -0.17777714 1.174 1.4004351e-38
0.026529206 -0.17412126 1.177 1.5901578e-38
0.034609403 -0.17402788 1.177 1.3518532e-38
0.04147524 -0.17150572 1.177 1.7834446e-38
-0.071516767 -0.16657352 1.177 1.9175622e-38
-0.065015234 -0.16515365 1.177 1.8070706e-38
-0.05627181 -0.16769449 1.177 1.7425326e-38
-0.033573333 -0.16897619 1.1750001 4.8089775e-39
0.026678666 -0.16522837 1.177 1.6086333e-38
0.034914758 -0.16487285 1.1763334 1.609137e-38
0.04147524 -0.16478001 1.177 1.7298154e-38
-0.068378098 -0.15693334 1.177 1.8345134e-38
0.035870478 -0.15805428 1.177 1.6088819e-38
-0.04147524 0.0078466665 1.177 2.2130897e-38
-0.033382293 0.0069445716 1.1762002 2.341769e-38
-0.025280952 0.0038028571 1.1746 2.341769e-38
-0.014163176 0.0026079367 1.1743335 2.341769e-38
-0.0041076196 0.0022380955 1.1756668 2.341769e-38
0.0044838097 0.0033628573 1.177 2.341769e-38
0.014247211 0.0027206808 1.1764287 2.341769e-38
0.024132656 0.0046330616 1.1747144 2.341769e-38
0.03464324 0.0067047626 1.1734003 2.2588282e-38
0.042079054 0.0063304766 1.1730001 2.0836568e-38
-0.041404765 0.011188572 1.1750001 2.3049981e-38
-0.037518576 0.010638571 1.1760001 2.3234019e-38
0.035376195 0.010426668 1.1730002 2.27716e-38
0.04133429 0.010054287 1.1730001 2.1663453e-38
0.04133429 0.023460001 1.1730001 1.3339662e-38
-0.044685718 0.059208576 1.1730001 2.0282666e-38
-0.044165526 0.062100764 1.177 1.9914969e-38
-0.035222381 0.065687381 1.1740001 1.7333127e-38
-0.023790617 0.06690219 1.1735716 1.6320419e-38
-0.014212383 0.066104218 1.1735718 1.3553105e-38
-0.0049173338 0.066381529 1.1734003 1.2909899e-38
0.0048409533 0.067400962 1.1730002 1.3183242e-38
0.014541144 0.067121528 1.1746001 1.3277248e-38
0.023921335 0.067745343 1.1738001 1.5305548e-38
-0.032059241 0.071516767 1.177 1.3830802e-38
-0.025377778 0.071287304 1.1756668 1.3735728e-38
-0.014572382 0.07062 1.177 1.2358519e-38
-0.0044838097 0.07062 1.177 1.1065269e-38
0.0028023811 0.071180478 1.177 1.0970569e-38
0.025720954 0.070460007 1.1743335 1.4382863e-38
0.034118097 0.072709054 1.1745001 1.5119011e-38
0.025869526 -0.34305242 1.1810001 1.9684073e-38
0.038661271 -0.34419212 1.1823335 2.2440572e-38
0.04545448 -0.34361923 1.1814001 2.3073709e-38
0.055863183 -0.34155273 1.1810001 2.3082663e-38
0.065236196 -0.34080291 1.1810001 2.3087054e-38
0.071984768 -0.34080291 1.1810001 2.3386695e-38
0.0071298419 -0.33405274 1.1823335 1.6486433e-38
0.013872066 -0.33570403 1.1810001 1.9314931e-38
0.021370478 -0.33742863 1.1810001 2.1702966e-38
0.048364766 -0.33855337 1.1810001 2.3312387e-38
0.059612386 -0.33855337 1.1810001 2.3099499e-38
0.068610482 -0.33855337 1.1810001 2.3372301e-38
0.075705133 -0.3350926 1.181 2.3091417e-38
0.083794773 -0.33236715 1.1810001 2.3293098e-38
-0.001124762 -0.32730573 1.1810001 2.341762e-38
0.0041241273 -0.32880542 1.1810001 2.1394691e-38
0.010122858 -0.32955524 1.1810001 2.0995892e-38
0.077608578 -0.32955524 1.1810001 2.3171266e-38
0.087169051 -0.32899284 1.1810001 2.3268683e-38
0.094442621 -0.32418811 1.1840001 2.1605829e-38
-0.013839286 -0.31485403 1.1860001 1.3360117e-38
0.097060956 -0.31486762 1.1850001 1.9108326e-38
0.1007819 -0.31140476 1.189 2.0927707e-38
-0.01127381 -0.30433005 1.1835001 1.2721584e-38
0.097079605 -0.30539823 1.1832857 1.9148575e-38
0.10078191 -0.30461049 1.189 2.1578825e-38
-0.012257416 -0.29423255 1.1850002 1.354953e-38
-0.007873334 -0.29356289 1.1810001 1.2989895e-38
0.098075241 -0.29573306 1.1836667 2.2036912e-38
0.1027168 -0.29375216 1.1875455 2.1574865e-38
-0.01114245 -0.28529677 1.1867144 1.2628667e-38
-0.007873334 -0.28456479 1.1810001 1.2991348e-38
0.088856198 -0.28119051 1.1810001 1.268049e-40
0.095145009 -0.28401956 1.18225 1.5861273e-38
0.10284698 -0.28479907 1.1866668 1.9914981e-38
-0.010191428 -0.27063903 1.189 1.4104485e-38
-0.0074500949 -0.27559718 1.1850001 1.4471859e-38
0.087892123 -0.27395988 1.1810002 1.6129532e-38
0.094925329 -0.27520016 1.1857059 1.9177054e-38
0.10148032 -0.27689907 1.1883335 1.8623519e-38
-0.010630666 -0.26394421 1.1874001 1.6132415e-38
-0.007873334 -0.26506895 1.1810001 1.5396339e-38
0.088299468 -0.26425025 1.182143 1.8342626e-38
0.092895053 -0.26624653 1.1866001 1.8803597e-38
-0.012281632 -0.25415498 1.1875715 1.2896982e-38
-0.0050318101 -0.25440642 1.1823335 1.6308177e-38
0.004192295 -0.25286701 1.181 1.6312863e-38
0.013497144 -0.25082195 1.1810001 1.5946964e-38
0.07873334 -0.25082195 1.1810001 1.7239123e-38
0.086206563 -0.25501782 1.1845294 1.7607553e-38
0.091722853 -0.25931525 1.189 1.7609361e-38
-0.022533335 -0.24561526 1.1830001 2.2534904e-38
-0.013718573 -0.244884 1.184 1.3882671e-38
-0.0047422862 -0.24642216 1.1858001 5.5389895e-39
0.0047369534 -0.24614203 1.1844668 1.0518966e-38
0.014867529 -0.24543917 1.1834762 1.5121524e-38
0.024944233 -0.24429978 1.1845555 1.595128e-38
0.033723082 -0.24335022 1.1826469 1.659628e-38
0.041616194 -0.24182382 1.1810001 1.6782456e-38
0.059612386 -0.24182382 1.1810001 1.733205e-38
0.06568604 -0.24134448 1.1823335 1.7608285e-38
0.07461258 -0.24448277 1.1841578 1.7148735e-38
0.082842618 -0.24555534 1.1875 1.4937853e-38
-0.070920005 -0.23414575 1.1820002 6.4638129e-39
-0.067571908 -0.23424429 1.1825002 1.1534193e-38
-0.012372382 -0.23957431 1.1810001 2.0874368e-38
-0.003374286 -0.23957431 1.1810001 4.9789255e-39
0.028309524 -0.23893237 1.189 1.5218382e-38
0.036453567 -0.23824547 1.187 1.5767608e-38
0.044464659 -0.23810805 1.1836667 1.613532e-38
0.055528361 -0.23878741 1.1845556 1.7242011e-38
0.065179147 -0.23848243 1.1867778 1.5954152e-38
0.073604763 -0.23893237 1.189 1.5210498e-38
0.084682867 -0.23788002 1.1856668 3.2283731e-39
0.091105722 -0.23844954 1.1810001 2.9484987e-39
-0.071259998 -0.22433111 1.1876668 7.7541733e-39
-0.067060001 -0.22527778 1.1866667 1.2535343e-38
-0.003175325 -0.22355822 1.1839092 2.1387569e-38
0.0033967195 -0.22299396 1.1885556 1.9729107e-38
-0.073470905 -0.21324752 1.1835457 1.1348371e-38
-0.066626757 -0.21482556 1.182091 2.2405321e-38
-0.0035511362 -0.21452685 1.1831541 2.1298262e-38
0.0043002544 -0.21498738 1.1876668 2.2034749e-38
0.010191428 -0.21552984 1.189 2.1848897e-38
-0.080128573 -0.20201428 1.1850001 1.1361672e-38
-0.074565113 -0.20464054 1.181 1.9089537e-38
-0.068610482 -0.20470668 1.1810001 2.2588651e-38
-0.0033793654 -0.2051689 1.1836668 2.0467434e-38
0.0045223809 -0.2056624 1.1865 2.3141465e-38
0.014576084 -0.20548733 1.1876665 2.341769e-38
0.024792193 -0.20550118 1.1868666 2.341769e-38
0.034438413 -0.20474674 1.1868669 2.341769e-38
0.044809934 -0.20301975 1.189 2.3325852e-38
0.054354284 -0.20156382 1.189 2.2848701e-38
0.061827999 -0.20133734 1.189 2.2381612e-38
-0.081043571 -0.19625309 1.186 1.8908027e-38
-0.074774295 -0.19544107 1.1821765 2.3325493e-38
-0.068610482 -0.19795811 1.1810001 2.3137866e-38
-0.0041294186 -0.19461082 1.1834445 1.8716444e-38
0.0045142858 -0.19524287 1.1849999 2.2773402e-38
0.014651163 -0.19500896 1.1835598 2.341769e-38
0.024769526 -0.19478534 1.1821998 2.3325854e-38
0.034916077 -0.19485171 1.1825998 2.2666786e-38
0.045036145 -0.19480118 1.1837368 2.1716403e-38
0.055079222 -0.19456844 1.1846364 2.1329936e-38
0.065070346 -0.19407322 1.1867145 2.0961125e-38
0.072472379 -0.19137238 1.189 2.1329532e-38
-0.081773654 -0.1835089 1.187 2.3233299e-38
-0.077608578 -0.18513583 1.1810001 2.3325854e-38
-0.013083304 -0.18339749 1.185706 1.5949826e-38
-0.004772699 -0.18466319 1.1863333 1.724166e-38
0.0045142858 -0.18508571 1.1850001 2.1298639e-38
0.014122013 -0.18433599 1.181 2.2957794e-38
0.025869526 -0.18383612 1.1810001 2.2193937e-38
0.03513227 -0.18492413 1.181 2.0220717e-38
0.04499048 -0.18446097 1.181 2.0687397e-38
0.055182863 -0.18467908 1.1824 2.0686342e-38
0.065669976 -0.1847894 1.1852353 1.9949497e-38
0.074406222 -0.18398292 1.1868824 1.9767261e-38
0.082457922 -0.18375453 1.1890001 2.1057619e-38
-0.083657146 -0.17409334 1.187 2.2128748e-38
-0.079408199 -0.17478803 1.1810001 2.2312421e-38
-0.04499048 -0.17208859 1.1810001 1.5856925e-38
-0.023779999 -0.17551905 1.189 1.0236949e-38
-0.019120954 -0.17883717 1.1810001 1.2813407e-38
-0.0028296825 -0.17560683 1.1883335 1.733458e-38
0.0042554499 -0.17523293 1.1836667 1.9361445e-38
0.014621906 -0.17546287 1.181 2.1020241e-38
0.02362 -0.1759128 1.1810001 1.903589e-38
0.035430003 -0.17883717 1.1810001 1.9210867e-38
0.045215435 -0.17568783 1.1810001 1.876101e-38
0.055517234 -0.17506272 1.1832608 1.9524196e-38
0.065327868 -0.17481448 1.185842 1.8614482e-38
0.074750595 -0.17465621 1.187 1.9994501e-38
0.081908889 -0.17451249 1.189 1.8499193e-38
-0.083657146 -0.16504952 1.187 2.0653622e-38
-0.076258868 -0.1648901 1.181 1.9547278e-38
-0.065236196 -0.16196573 1.1810001 1.7887749e-38
-0.054224964 -0.16342723 1.1812667 1.7056894e-38
-0.045051433 -0.16555947 1.1826 1.3647114e-38
-0.038616829 -0.16721462 1.1810002 5.3592576e-39
-0.0022647618 -0.16532764 1.189 1.6964359e-38
0.0047595771 -0.16527185 1.1841111 1.7793403e-38
0.014623278 -0.16536178 1.1811599 1.7866124e-38
0.022720192 -0.16489013 1.1810001 1.5989078e-38
0.030368574 -0.16084096 1.1810001 1.5991223e-38
0.046126164 -0.16537683 1.1812667 1.9076903e-38
0.054960698 -0.16518089 1.1842726 1.7683935e-38
0.065500721 -0.16487645 1.18575 1.54374e-38
0.074720711 -0.16529216 1.1887499 1.5563838e-38
0.08153142 -0.16646001 1.1890001 2.1020228e-38
-0.08472313 -0.15475349 1.1860667 1.8901547e-38
-0.075108372 -0.15457204 1.1816956 1.8162546e-38
-0.064575307 -0.15457609 1.1812667 1.7516089e-38
-0.05590608 -0.15515508 1.184238 1.7056535e-38
-0.046324767 -0.15817651 1.1863334 1.1889989e-38
-0.0021029932 -0.15675388 1.189 1.6685956e-38
0.0045175245 -0.15479389 1.1863998 1.6579358e-38
0.014659392 -0.15450779 1.1841999 1.5174423e-38
0.024503285 -0.15464857 1.1814444 1.3797974e-38
0.03458643 -0.1543736 1.181 1.609603e-38
0.04524326 -0.15457402 1.1828947 1.9268157e-38
0.054907463 -0.1549087 1.1849999 1.6290504e-38
0.065104164 -0.15468192 1.1879089 1.4801679e-38
0.072925329 -0.15649505 1.189 1.4985057e-38
-0.083980002 -0.14523819 1.1871821 1.7886672e-38
-0.075433813 -0.14512126 1.1839999 1.7609361e-38
-0.065583512 -0.14585452 1.1862631 1.6964712e-38
-0.056619048 -0.14720953 1.189 1.6965414e-38
-0.0011323809 -0.14834191 1.189 1.4641457e-38
0.0049771429 -0.14643106 1.1882 1.4343597e-38
0.015071536 -0.14507568 1.1869999 1.5444879e-38
0.025063915 -0.14500012 1.1843334 1.5262651e-38
0.034920193 -0.14530598 1.18276 1.6290867e-38
0.044945046 -0.1447873 1.1850001 1.8716073e-38
0.054056194 -0.14497317 1.1874001 1.8527348e-38
0.061148576 -0.14720953 1.189 1.5180527e-38
-0.081153959 -0.13852793 1.189 1.714911e-38
-0.075416572 -0.1388299 1.189 1.6965073e-38
-0.069075234 -0.13928285 1.189 1.6964357e-38
0.018118095 -0.13815048 1.189 1.544488e-38
0.024891239 -0.13463655 1.1879998 1.5350897e-38
0.035080191 -0.13465959 1.1881996 1.6581163e-38
0.0447574 -0.13592997 1.1887333 1.8162528e-38
0.052768953 -0.137924 1.189 1.8807548e-38
0.027177144 -0.12795904 1.189 1.499512e-38
0.032839049 -0.12682667 1.189 1.6685238e-38
0.041898094 -0.12682667 1.189 1.7515717e-38
-0.023779999 -0.010191428 1.189 2.341769e-38
-0.013804001 -0.011539239 1.1878002 2.341769e-38
-0.004521905 -0.013569524 1.1869999 2.341769e-38
0.0043222965 -0.013900786 1.1868824 2.341769e-38
0.013574149 -0.012766395 1.1875715 2.341769e-38
0.024912382 -0.010191428 1.189 2.341769e-38
0.03231829 -0.011075238 1.1866001 2.1849275e-38
-0.030574286 -0.0022647618 1.189 2.341769e-38
-0.024854999 -0.0045230952 1.18625 2.341769e-38
-0.014657333 -0.0045127622 1.1838001 2.341769e-38
-0.0045083337 -0.0045111906 1.1832501 2.341769e-38
0.0045040478 -0.0045069051 1.18225 2.341769e-38
0.014648192 -0.0045100953 1.1829998 2.341769e-38
0.024823571 -0.004517857 1.1847501 2.341769e-38
0.033857144 -0.0045142863 1.1850001 2.2126588e-38
-0.041757144 0.0056428574 1.1850001 2.1301865e-38
-0.034706984 0.0041313232 1.1841112 2.3142183e-38
-0.024744764 0.001124762 1.1810001 2.341769e-38
-0.01687143 0.001124762 1.1810001 2.341769e-38
-0.003374286 0.001124762 1.1810001 2.341769e-38
0.004499048 0.001124762 1.1810001 2.341769e-38
0.015371747 0.001124762 1.1810001 2.341769e-38
0.025419623 0.0015746668 1.1810001 2.341769e-38
0.034394819 0.002375344 1.1818889 2.2679042e-38
-0.05061429 0.064111434 1.1810001 1.9082702e-38
-0.04511556 0.065423504 1.1843334 1.9638744e-38
-0.038661271 0.067938104 1.1823335 1.834872e-38
-0.034051023 0.074720956 1.1861429 1.5853691e-38
-0.025328029 0.075655118 1.1855716 1.2724449e-38
-0.014629049 0.07229691 1.1815001 1.1247872e-38
-0.0045108576 0.073738091 1.1838001 1.0512444e-38
0.0051807621 0.073261149 1.1834 1.0145109e-38
0.014669525 0.072206862 1.1846002 1.1616281e-38
0.024813971 0.073318422 1.1843334 1.3924051e-38
0.034060765 0.076467626 1.1842002 1.3736804e-38
0.197427 -0.40243432 1.1936667 1.6499443e-38
0.2018632 -0.40183276 1.1930001 1.6227178e-38
0.19782595 -0.39678955 1.1955001 1.5766183e-38
0.20220159 -0.39681274 1.1950002 1.7703014e-38
0.099069528 -0.32681811 1.1956668 2.0805244e-38
0.10222 -0.32338002 1.197 2.1113172e-38
-0.02166 -0.31691998 1.197 1.3108675e-38
-0.017528191 -0.31365713 1.1950001 1.5483818e-38
0.10380243 -0.3141821 1.1947778 2.2771243e-38
0.11742001 -0.31395599 1.197 2.092803e-38
-0.015935238 -0.30500951 1.1950001 1.4837751e-38
0.10581587 -0.30492538 1.1946667 2.3325852e-38
0.11499748 -0.30480745 1.1970003 2.277338e-38
-0.017451428 -0.29514667 1.1950001 1.530017e-38
0.10755601 -0.29629165 1.1938 2.1758537e-38
0.11537278 -0.29548526 1.1963047 2.102239e-38
0.12198001 -0.29526001 1.197 1.4098422e-38
-0.014039682 -0.28470084 1.1952224 1.318147e-38
0.10761969 -0.28458318 1.1936667 1.9268885e-38
0.11291296 -0.28573048 1.1959336 1.917669e-38
-0.012734112 -0.27544111 1.1955454 1.3359398e-38
0.098848581 -0.27154952 1.1930001 1.7517172e-38
0.10510666 -0.27415091 1.1958575 1.7978497e-38
0.11194799 -0.27793202 1.197 1.7886307e-38
-0.013078572 -0.2672286 1.194 1.9156131e-38
0.09701027 -0.26471883 1.1952223 1.7977055e-38
0.10146 -0.26790002 1.197 1.7704064e-38
0.092794284 -0.25503859 1.1955001 1.8072137e-38
-0.0011400001 -0.24395999 1.197 2.0362814e-39
0.0037987302 -0.24254826 1.1956667 1.3866101e-39
0.014147349 -0.24149513 1.1952858 5.1792342e-39
0.088244133 -0.24503843 1.1930001 5.8152499e-39
0.090820007 -0.24738 1.197 8.6675565e-39
0.018598413 -0.2387521 1.1956668 6.2769049e-39
0.025169419 -0.23815696 1.1952223 9.5016051e-39
0.034443572 -0.23653646 1.1955001 9.6881306e-39
0.04630667 -0.23647462 1.1956668 1.0331709e-38
0.05462857 -0.23615287 1.1950001 1.1805386e-38
0.064869992 -0.23444527 1.1950002 8.121172e-39
0.074894838 -0.23801486 1.1941428 8.3052284e-39
0.081805713 -0.23973621 1.1930001 1.4860574e-39
-0.07158 -0.22610192 1.1930001 7.2982272e-39
-0.067035235 -0.22155716 1.1930001 1.9468692e-38
0.0056809532 -0.22458701 1.1930001 1.8156715e-38
0.014809959 -0.22437605 1.1959094 1.2630068e-38
0.0079533337 -0.21474002 1.1930001 2.2682995e-38
0.015353811 -0.21463694 1.1940001 2.2219489e-38
0.025047144 -0.21348384 1.1955001 2.2865584e-38
0.035091594 -0.2126364 1.1950001 2.3049624e-38
0.045070071 -0.21167582 1.1958573 2.3417683e-38
0.054719999 -0.21090001 1.197 2.341769e-38
0.061559997 -0.21090001 1.197 2.341769e-38
0.039766666 -0.20792288 1.1930001 2.341769e-38
0.046205085 -0.20716541 1.1930001 2.341769e-38
0.054820385 -0.20631412 1.1941999 2.3417326e-38
0.065538906 -0.20555814 1.1952858 2.3043878e-38
0.072960004 -0.20292 1.197 2.2759405e-38
-0.085819051 -0.19351788 1.1935 1.5588991e-38
0.069307618 -0.19769716 1.1930001 2.0956873e-38
0.075231872 -0.19609314 1.1954616 2.1331026e-38
0.084290475 -0.19420907 1.1960003 2.1235619e-38
0.090820007 -0.19114003 1.197 2.0870086e-38
-0.093048573 -0.18381906 1.1963334 9.7778459e-39
-0.086818308 -0.18586738 1.1930001 2.0288801e-38
0.077260956 -0.18974383 1.1930001 2.114658e-38
0.086918578 -0.18519907 1.193 2.1242014e-38
0.092734292 -0.18524286 1.1962001 2.087326e-38
-0.093757138 -0.17523652 1.1956669 1.6513825e-38
-0.088622861 -0.17497334 1.193 2.1852172e-38
-0.023242857 -0.17376015 1.1947144 1.0794435e-38
-0.014795239 -0.17526288 1.1950004 1.4751291e-38
-0.0072003184 -0.17431176 1.1936667 1.5489229e-38
0.07158 -0.17156476 1.1930001 1.5036926e-38
0.087693252 -0.17487006 1.193 1.8208919e-38
0.092262857 -0.17541239 1.1960001 1.7559963e-38
-0.093972862 -0.1653538 1.1960001 1.9457967e-38
-0.088749111 -0.1652526 1.193 2.065255e-38
-0.026132382 -0.16929239 1.1930001 5.9163914e-39
-0.0114 -0.16985999 1.197 1.4381088e-38
-0.0065430952 -0.16580977 1.1945 1.5949834e-38
0.078397147 -0.16020286 1.1930001 1.668814e-38
0.085676543 -0.16438872 1.1935002 1.8885653e-38
0.091580003 -0.16568001 1.197 1.6727368e-38
-0.094300523 -0.1545407 1.1955458 1.9638754e-38
-0.089759052 -0.15452191 1.1930001 1.90863e-38
-0.052264769 -0.15224952 1.1930001 1.677994e-38
-0.047720008 -0.15338571 1.1930001 8.3851388e-39
-0.004389524 -0.15360397 1.1947143 1.594804e-38
0.076629743 -0.15363821 1.193 1.6590169e-38
0.08315175 -0.15490827 1.1960002 1.9821315e-38
-0.094738774 -0.14503498 1.1964288 1.8901915e-38
-0.087811299 -0.14397156 1.1930001 1.7979231e-38
-0.060786195 -0.14372811 1.1930001 1.6781034e-38
-0.054491024 -0.14411703 1.1955715 1.3737124e-38
-0.048979051 -0.14579523 1.1960001 4.8709051e-39
-0.00285 -0.14763001 1.197 1.4728979e-38
0.0036648682 -0.14192753 1.1943334 1.4068801e-38
0.011361905 -0.14202382 1.1930001 1.5170454e-38
0.057945717 -0.14202382 1.1930001 1.9272111e-38
0.065922454 -0.1442316 1.1944739 1.723227e-38
0.07499525 -0.14488947 1.1959476 1.8532039e-38
0.082460009 -0.14782001 1.197 1.945326e-38
-0.092519224 -0.13541014 1.1966366 1.78856e-38
-0.085139796 -0.13503665 1.1936318 1.7241304e-38
-0.074826866 -0.13396057 1.1940666 1.696398e-38
-0.064955331 -0.13559489 1.1946366 1.6779247e-38
-0.055859998 -0.13680001 1.197 1.3179596e-38
0.0062633334 -0.13839287 1.1960001 1.4437197e-38
0.014663281 -0.13528107 1.1947781 1.5171519e-38
0.047038291 -0.13157086 1.1930001 1.8068907e-38
0.055131111 -0.1342943 1.1943336 1.8254377e-38
0.064603128 -0.13489151 1.1957276 1.8346926e-38
0.073122874 -0.13565999 1.197 1.8163975e-38
-0.090060003 -0.12882 1.197 1.7422823e-38
-0.083904006 -0.126996 1.1970001 1.6963278e-38
-0.075696014 -0.126996 1.1970001 1.687179e-38
-0.069539994 -0.12882 1.197 1.7052236e-38
0.017946906 -0.1262012 1.1965001 1.5364587e-38
0.02469388 -0.12461103 1.1941429 1.593506e-38
0.03579 -0.12441284 1.1930001 1.7148012e-38
0.045968033 -0.12474367 1.1938571 1.7332048e-38
0.054357003 -0.12579687 1.1961429 1.7332415e-38
0.063270003 -0.127395 1.197 1.7150175e-38
0.02736 -0.11970001 1.197 1.6503737e-38
0.035846669 -0.11868668 1.1970001 1.7056169e-38
0.045762856 -0.11872287 1.197 1.6872505e-38
0.0513 -0.11970001 1.197 1.6872156e-38
-0.094049998 -0.031350002 1.197 2.1636829e-38
-0.085956 -0.031692002 1.197 2.341769e-38
-0.10222 -0.02242 1.197 1.8656246e-38
-0.094619997 -0.025079999 1.1970004 2.1356629e-38
-0.084306911 -0.025065474 1.1962503 2.341769e-38
-0.077031434 -0.023614286 1.197 2.341769e-38
-0.10316999 -0.014249999 1.1970003 1.8379665e-38
-0.095241822 -0.015130906 1.1970004 2.0063022e-38
-0.084928572 -0.014494453 1.1945655 2.3325854e-38
-0.075420007 -0.01458 1.1970003 2.323366e-38
-0.060420003 -0.014820001 1.197 1.9733447e-38
-0.058139998 -0.01368 1.197 2.0008596e-38
-0.030728573 -0.011382857 1.1950001 2.341769e-38
-0.025266478 -0.012976572 1.1950001 2.341769e-38
-0.015206149 -0.016036624 1.1948181 2.341769e-38
-0.0045600003 -0.019380001 1.197 2.341769e-38
0.0056898408 -0.019336827 1.1943334 2.341769e-38
0.016246323 -0.01728338 1.1951818 2.341769e-38
0.025024129 -0.014789524 1.1943333 2.3325854e-38
0.032495048 -0.016133904 1.1930001 2.2308098e-38
-0.10373999 -0.0045599998 1.1970003 1.7002896e-38
-0.095701188 -0.0045578568 1.1962503 2.045445e-38
-0.085269146 -0.0045478097 1.1938002 2.3325854e-38
-0.07572858 -0.0048857136 1.1970003 2.277196e-38
-0.069539994 -0.0079799993 1.197 1.9820257e-38
-0.033519261 -0.0041732276 1.1952225 2.341769e-38
-0.10465199 0.0047880001 1.1970003 2.0006782e-38
-0.095440015 0.0045447629 1.1930001 2.2681203e-38
-0.08524134 0.0045470488 1.1934003 2.2220945e-38
-0.077202149 0.0037035714 1.1965001 2.0096859e-38
-0.042109527 0.002274286 1.1950001 2.0931652e-38
-0.038000572 0.0020466668 1.1946 2.2866677e-38
-0.10311817 0.013783637 1.1970001 1.770338e-38
-0.095570676 0.014792192 1.1946002 1.5672559e-38
-0.085883893 0.014469611 1.1937276 1.5764389e-38
-0.094366662 0.022926668 1.1970001 1.5214057e-38
-0.085500002 0.02166 1.197 1.5769067e-38
-0.051128577 0.067035235 1.1930001 1.8898672e-38
-0.045523811 0.06885571 1.1950001 1.9360005e-38
-0.052440003 0.078660004 1.197 1.7518963e-38
-0.042180002 0.071820006 1.197 1.9178483e-38
-0.037568301 0.076270618 1.1952858 1.8621351e-38
-0.022395875 0.077814929 1.1956668 1.3183964e-38
-0.014800953 0.077417918 1.1954 1.2354565e-38
-0.0045599998 0.078660004 1.197 1.3366894e-38
0.0050404086 0.077573478 1.1952858 1.2353828e-38
0.014795238 0.077392384 1.1950001 1.3182522e-38
0.024543542 0.077535927 1.1947143 1.4660174e-38
0.031813335 0.078397147 1.1930001 1.5397036e-38
-0.035071328 0.084108017 1.1959476 1.797671e-38
-0.026411427 0.083566286 1.1954002 1.6315727e-38
-0.013110001 0.082650006 1.197 1.4934235e-38
-0.0045599993 0.084360003 1.1970003 1.5949107e-38
0.0045599993 0.084360003 1.1970003 1.6407921e-38
0.014819999 0.084486671 1.1970003 1.7331671e-38
0.025079999 0.084360003 1.1970003 1.779158e-38
0.033050165 0.084337465 1.196667 1.2720067e-38
-0.032300003 0.091580003 1.197 1.6965448e-38
-0.027049091 0.095034547 1.1970001 1.6042401e-38
-0.014339999 0.095819995 1.1970003 1.9549795e-38
-0.0045599998 0.094619997 1.1970004 2.0562507e-38
0.0045599993 0.094619997 1.1970004 2.0746533e-38
0.014301821 0.094101824 1.1970004 1.8991218e-38
0.02166 0.090060003 1.197 1.834982e-38
-0.026219999 0.10146 1.197 1.3069094e-38
-0.0133 0.10146 1.197 9.7760298e-39
-0.0049400004 0.10146 1.197 1.3094698e-38
0.0047880001 0.10191601 1.197 1.383045e-38
0.0114 0.10146 1.197 1.225594e-38
0.19346476 -0.40181142 1.202 1.9725912e-38
0.19518967 -0.39545688 1.2045716 1.7697235e-38
0.20302744 -0.39435318 1.2044001 1.7706244e-38
0.19678859 -0.38458008 1.2060003 1.8528438e-38
0.20198451 -0.38345882 1.2060002 1.733529e-38
0.19870287 -0.37788001 1.2060001 1.8163607e-38
0.20375657 -0.37489375 1.2060002 1.733349e-38
0.21248573 -0.37558287 1.2060001 1.8994823e-38
0.20214859 -0.36754289 1.2060001 1.7056196e-38
0.107064 -0.32394096 1.2036 2.3417683e-38
0.11205143 -0.32315749 1.2046667 2.3417641e-38
-0.023385854 -0.31219292 1.2020001 1.3650362e-38
-0.019460952 -0.31023046 1.202 1.5755021e-38
0.10829448 -0.31664115 1.202 2.341769e-38
0.11275905 -0.31461877 1.2019999 2.3417686e-38
-0.023835048 -0.30549565 1.2032 1.4294284e-38
-0.019460952 -0.30450666 1.202 1.5391995e-38
-0.02182286 -0.29748002 1.2060001 1.7513945e-38
-0.019477142 -0.29330003 1.2030001 1.6954286e-38
-0.017642286 -0.28431964 1.2028002 1.6767367e-38
0.11791047 -0.28390095 1.202 1.917416e-38
0.1202 -0.28504571 1.202 1.5402792e-38
-0.016613334 -0.27554476 1.2030001 1.7603584e-38
0.10875238 -0.27245334 1.202 1.7609714e-38
0.11483033 -0.27468818 1.2029231 1.7148382e-38
-0.016026668 -0.2678743 1.202 2.3414778e-38
0.099704765 -0.26243874 1.2033334 1.8529155e-38
0.10495048 -0.26628959 1.2043333 1.7886663e-38
0.11436492 -0.26860172 1.2060002 1.4938227e-38
0.097187012 -0.25447291 1.2030909 1.4390817e-38
0.006868572 -0.24154477 1.202 5.5901299e-40
0.01032 -0.24079812 1.204 1.6657473e-39
0.095669396 -0.2464509 1.2020001 2.6676645e-39
0.006868572 -0.23925523 1.202 2.8667456e-39
0.015610714 -0.23501354 1.2029999 5.0808812e-39
0.024831535 -0.23467959 1.2033334 4.8032139e-39
0.034589663 -0.23424955 1.2048572 7.1833824e-39
0.044733338 -0.23399623 1.2043999 7.82767e-39
0.055021714 -0.23269372 1.2036 8.4759079e-39
0.063485712 -0.23137081 1.2046669 9.2174148e-39
0.075039998 -0.23544 1.2030001 4.0717964e-39
0.017171431 -0.22420982 1.2020001 1.4750191e-38
0.025268573 -0.22167429 1.2060001 1.8528394e-38
0.031011432 -0.22167429 1.2060001 1.8252863e-38
0.042497143 -0.22224858 1.2060001 1.5482319e-38
0.02544724 -0.21848266 1.2036 2.0834031e-38
0.035100576 -0.21862821 1.2044001 2.074255e-38
0.044703621 -0.21733789 1.2036002 2.1297517e-38
0.054586038 -0.21567766 1.2024444 2.2403874e-38
0.064858668 -0.21428573 1.2032 2.2958144e-38
0.074657157 -0.21202628 1.2060002 2.3417687e-38
0.08384572 -0.2101886 1.2060001 2.341769e-38
0.069830477 -0.20949143 1.202 2.341769e-38
0.076306671 -0.20580766 1.2023636 2.3136434e-38
0.08480119 -0.20398264 1.2032501 2.3138219e-38
0.093245238 -0.20226905 1.205 2.3417331e-38
0.088146664 -0.19804381 1.202 2.2097555e-38
0.095607392 -0.19521952 1.2039999 2.2483512e-38
0.097796842 -0.18489143 1.2033333 1.9587632e-38
0.10222286 -0.18492001 1.2060002 1.9979498e-38
-0.097304761 -0.17285904 1.202 1.2456163e-38
-0.02293524 -0.17085335 1.204 9.9704376e-39
-0.017171429 -0.17056952 1.202 1.5027149e-38
0.097212248 -0.17494531 1.202857 1.5907291e-38
0.10324429 -0.1743643 1.2045002 1.7373849e-38
-0.10286895 -0.16335049 1.2028002 1.1997049e-39
-0.098613068 -0.16500925 1.2020001 1.3381704e-38
-0.013566985 -0.16641016 1.2036667 1.4750215e-38
-0.0080133341 -0.1625562 1.202 1.5763291e-38
0.096558109 -0.16447294 1.2028573 1.7098994e-38
0.10371662 -0.16520615 1.2055557 1.727766e-38
-0.10369449 -0.15485144 1.2044001 7.3732023e-39
-0.099136382 -0.15637448 1.202 1.6608904e-38
-0.0080266669 -0.15595049 1.2040001 1.585549e-38
0.088146664 -0.15568762 1.202 1.7974472e-38
0.095223397 -0.1553299 1.2032726 1.6273564e-38
0.10337144 -0.1573543 1.2060002 1.4146992e-38
-0.10482018 -0.14457133 1.2041334 9.6895767e-39
-0.099594288 -0.14538477 1.202 1.8906594e-38
-0.051514287 -0.14195049 1.202 2.2963064e-39
-0.0052755564 -0.14450732 1.2036 1.5660249e-38
0.078988574 -0.14080572 1.202 1.8900459e-38
0.08553008 -0.1440765 1.202 1.8898624e-38
0.092693783 -0.14595856 1.2038462 1.618175e-38
-0.10532469 -0.13622081 1.2050772 1.4016985e-38
-0.097886346 -0.13428888 1.202889 1.8624596e-38
-0.061817143 -0.13164762 1.202 1.7238412e-38
-0.056156829 -0.13293843 1.2033335 1.576432e-38
-0.0019142858 -0.13821144 1.2060001 1.5271304e-38
0.0045806356 -0.13462095 1.2030001 1.4434703e-38
0.011066033 -0.13241079 1.202 1.4618728e-38
0.077207834 -0.13419153 1.202 1.8070343e-38
0.084803097 -0.13522071 1.2032499 1.816287e-38
0.090737149 -0.13897716 1.2060001 1.5372174e-38
-0.093730055 -0.12688088 1.2041819 1.7609005e-38
-0.085257523 -0.12215239 1.2032 1.6777812e-38
-0.07436128 -0.12215175 1.2043335 1.668741e-38
-0.065202378 -0.12653427 1.2037498 1.6871797e-38
-0.057428576 -0.12634288 1.2060001 1.6229305e-38
0.0072653978 -0.12887938 1.2046667 1.5270193e-38
0.013838096 -0.12490564 1.2032307 1.5651974e-38
0.022895239 -0.1202 1.202 1.6595564e-38
0.056551244 -0.1211158 1.202 1.7148023e-38
0.06583786 -0.1235162 1.2022499 1.7240574e-38
0.075092144 -0.12596095 1.20375 1.7423178e-38
0.083806001 -0.12808627 1.2054287 1.7976346e-38
-0.081548579 -0.11830287 1.2060001 1.6319369e-38
0.018760001 -0.11753716 1.2060001 1.6410455e-38
0.02579302 -0.11558731 1.2036668 1.6595212e-38
0.034103006 -0.11376954 1.2029232 1.6872516e-38
0.044379048 -0.11388789 1.2030666 1.7148733e-38
0.054995239 -0.11571526 1.2029999 1.7148376e-38
0.062754281 -0.11604953 1.2035002 1.7332777e-38
0.036065143 -0.10819544 1.2060002 1.7056912e-38
0.040200002 -0.10911429 1.2060001 1.7240935e-38
-0.10222286 -0.040200002 1.2060001 1.9400724e-38
-0.094820954 -0.041220956 1.2060002 2.3133184e-38
-0.085424386 -0.042024385 1.2056001 2.341769e-38
-0.078332581 -0.042497139 1.2060002 2.341769e-38
-0.1047685 -0.034158688 1.2047694 1.8472959e-38
-0.095198333 -0.035074051 1.2024999 2.2661066e-38
-0.084008493 -0.035499051 1.2023636 2.341769e-38
-0.076675884 -0.033846669 1.2046669 2.341769e-38
-0.11141144 -0.022971429 1.2060001 1.8376437e-38
-0.10604586 -0.025826963 1.2032307 1.8561548e-38
-0.073499054 -0.026169179 1.2041819 2.3417689e-38
-0.067719243 -0.023186669 1.2052001 2.2588288e-38
0.013756191 -0.021786667 1.204 2.341769e-38
-0.11141144 -0.014165714 1.2060001 1.8562988e-38
-0.1078938 -0.015740477 1.202 1.856262e-38
-0.072119996 -0.019460952 1.202 2.341769e-38
-0.066129074 -0.014362359 1.2040951 1.9729152e-38
-0.03247175 -0.012606351 1.2033334 2.341769e-38
-0.023507621 -0.017774286 1.2040001 2.341769e-38
-0.016026666 -0.019460952 1.202 2.341769e-38
-0.11141144 -0.004594286 1.2060001 1.7091817e-38
-0.10875238 -0.0045790477 1.202 1.709182e-38
-0.071091428 -0.0022933334 1.204 2.0004292e-38
-0.068798095 -0.0068819053 1.204 1.8524487e-38
-0.041280001 -0.0022952382 1.204 2.1023133e-38
-0.036693335 -0.0057352381 1.204 2.2591164e-38
-0.11251383 0.0045928573 1.2055001 1.7596731e-38
-0.10875238 0.0011447619 1.202 1.5267014e-38
-0.073353812 0.0051576197 1.2035 1.8536729e-38
-0.11198573 0.012060001 1.2060001 1.9453278e-38
-0.10752063 0.016161058 1.2024444 1.5859829e-38
-0.081413344 0.016055239 1.204 1.9000207e-38
-0.078176387 0.012152762 1.2036002 1.8067457e-38
0.12902287 0.016845716 1.2060002 2.341769e-38
0.1352565 0.015406985 1.2035555 2.3325853e-38
0.14420107 0.015411428 1.2037778 2.1664902e-38
0.15359534 0.01493143 1.2060003 1.8715717e-38
-0.10555302 0.024095241 1.2046669 1.8624219e-38
-0.097304761 0.025184762 1.202 1.9081574e-38
0.12786476 0.025709717 1.2052001 2.2036918e-38
0.1350819 0.025184764 1.2019999 2.0929487e-38
0.14436287 0.025205718 1.2029999 1.8161103e-38
0.15046287 0.021822859 1.2060001 1.8071065e-38
0.12841444 0.033293881 1.2054287 1.9822782e-38
0.13525048 0.034389053 1.2035 1.8991928e-38
0.14257017 0.03249016 1.2040002 1.8714624e-38
0.13530172 0.040659428 1.2060002 2.1485538e-38
-0.051514287 0.069830477 1.202 1.8807913e-38
-0.04922476 0.069830477 1.202 1.8990869e-38
-0.052687623 0.074449532 1.2026668 1.825653e-38
-0.045686431 0.07604453 1.2029999 1.788776e-38
-0.051514287 0.081278101 1.202 1.6966155e-38
-0.044229437 0.083983898 1.2019999 1.4661995e-38
-0.022895239 0.085857145 1.2020001 1.6869616e-38
-0.016026666 0.085857145 1.2019999 1.659412e-38
0.014881905 0.083567619 1.202 1.6036992e-38
-0.040200002 0.090737149 1.2060001 1.7055129e-38
-0.03437829 0.095798478 1.2032 1.6591985e-38
-0.022768045 0.09450645 1.202 1.8074304e-38
-0.016408257 0.091199368 1.2020001 2.0098998e-38
0.01869778 0.098831117 1.202 1.5753969e-38
0.025385166 0.095324829 1.202842 1.880935e-38
0.031887621 0.092454486 1.2044001 1.9175933e-38
-0.031011432 0.10337143 1.2060001 1.4607651e-38
-0.025136637 0.10566666 1.2033334 1.4812511e-38
-0.015151259 0.10592414 1.2019999 1.437099e-38
-0.0044909893 0.10611061 1.2019999 1.3175702e-38
0.0044749789 0.10667099 1.2019999 1.3824296e-38
0.015267087 0.10571977 1.2022221 1.7879103e-38
0.024120003 0.10566857 1.2060003 1.8783055e-38
0.19852288 -0.46089813 1.2190001 2.101739e-38
0.20084478 -0.46089813 1.2190001 2.1854329e-38
0.19852288 -0.45509338 1.2190001 1.8811517e-38
0.20147985 -0.45632625 1.2181667 2.0379189e-38
0.16137239 -0.44812766 1.2190001 6.9352461e-39
0.19736192 -0.44696671 1.2190001 1.3939222e-38
0.20084478 -0.44696671 1.2190001 1.9647398e-38
0.18923526 -0.40168953 1.2190001 2.2312782e-38
0.19077145 -0.40119812 1.2140001 2.3417687e-38
0.18674086 -0.39475104 1.2178888 2.0928049e-38
0.19195874 -0.39430919 1.2117778 2.1480485e-38
0.20549069 -0.39275929 1.2108001 1.9920363e-38
0.21407962 -0.39449164 1.219 2.277448e-38
0.22522476 -0.39124098 1.2190001 2.3325853e-38
0.17917368 -0.38272735 1.2190001 1.9180302e-38
0.18549772 -0.38502562 1.2156668 2.074475e-38
0.19221716 -0.38489524 1.21 2.0561428e-38
0.20671351 -0.38596952 1.2112001 1.8718237e-38
0.21458428 -0.38551554 1.2126667 2.1021695e-38
0.22447331 -0.38415438 1.2149376 2.1852884e-38
0.23031881 -0.38425404 1.2152501 2.1289542e-38
0.1774554 -0.37463272 1.2178462 1.7331711e-38
0.18475926 -0.37483704 1.2140001 1.7885961e-38
0.19454287 -0.37555945 1.2102103 1.8070355e-38
0.20627621 -0.37490797 1.21 1.7797711e-38
0.214775 -0.37521994 1.2102667 1.8809352e-38
0.22430098 -0.37460575 1.2140001 1.9271408e-38
0.23031881 -0.37499025 1.2152501 1.7320859e-38
0.17907336 -0.3655991 1.2175715 1.6502662e-38
0.18501551 -0.36522195 1.2145791 1.6962915e-38
0.19460016 -0.36607495 1.2115649 1.6964e-38
0.2052597 -0.36461818 1.2115555 1.668741e-38
0.21488503 -0.36564264 1.21305 1.7242019e-38
0.22490215 -0.36516979 1.21725 1.7242724e-38
0.23111486 -0.36649129 1.2170001 1.0017353e-38
0.18698415 -0.35719857 1.218091 1.622714e-38
0.19459929 -0.35560265 1.2162502 1.6594499e-38
0.20453507 -0.35575569 1.2157391 1.7057264e-38
0.2150092 -0.35550788 1.2178096 1.9175601e-38
0.22490862 -0.35542113 1.2177333 1.8069972e-38
0.23008192 -0.35957527 1.2140001 8.8734633e-39
0.19584377 -0.34641036 1.219 1.8715354e-38
0.20432766 -0.34480286 1.219 2.0745454e-38
0.21437241 -0.3449038 1.219 2.2127314e-38
0.22472723 -0.34745651 1.2190001 2.3139274e-38
0.20432764 -0.33435434 1.219 2.1482659e-38
0.2147762 -0.33435434 1.219 2.258901e-38
0.22448599 -0.33403775 1.219 2.3141807e-38
0.23102954 -0.33551526 1.2190001 1.9895835e-38
0.1985229 -0.32390577 1.2190001 2.1021329e-38
0.20432764 -0.32506669 1.219 2.1943284e-38
0.21437693 -0.32447025 1.21675 2.2772681e-38
0.22516795 -0.32498425 1.2186875 2.3233659e-38
0.1985229 -0.31694004 1.2190001 2.046816e-38
0.20432763 -0.31577912 1.219 2.1297915e-38
0.21433143 -0.31512958 1.2165002 2.2219504e-38
0.22499621 -0.3154529 1.21775 2.2864876e-38
0.2319583 -0.31508252 1.2190001 2.3325854e-38
-0.026504761 -0.30192384 1.21 1.1350191e-38
0.20527752 -0.30744132 1.219 1.9546208e-38
0.2147762 -0.30533049 1.2189999 1.9085951e-38
0.22478944 -0.30634633 1.219 2.1666339e-38
0.23219049 -0.30997431 1.2190001 2.3417689e-38
-0.025791163 -0.2940757 1.2125001 1.2733815e-38
0.21574366 -0.2964299 1.219 1.7798081e-38
0.2223224 -0.29662335 1.2190001 1.9365412e-38
-0.025461191 -0.28471574 1.21525 1.3289529e-38
-0.019639051 -0.28476194 1.2130002 2.0918309e-38
-0.025188448 -0.27522501 1.2132001 1.0617671e-38
-0.01915543 -0.27486289 1.2116002 2.2590408e-38
0.11869524 -0.27080953 1.21 1.1521245e-38
-0.023060953 -0.26634797 1.2106668 6.1951966e-39
-0.0175418 -0.26543176 1.21 2.0106562e-38
0.1078381 -0.26295811 1.2110001 1.7518958e-38
0.11535124 -0.26375139 1.2135999 9.0434772e-39
0.12140001 -0.2659238 1.2140001 3.4285373e-39
0.10477883 -0.25477016 1.2104443 6.5542387e-39
0.11412287 -0.25778335 1.2165002 2.2264517e-39
0.082427621 -0.24031717 1.2190001 5.7262492e-39
0.024806188 -0.23133667 1.2115 7.3756854e-39
0.034340955 -0.23208955 1.21 7.1890843e-39
0.044942856 -0.23162858 1.21 7.6522373e-39
0.051857144 -0.23162858 1.21 8.0202589e-39
0.067059055 -0.23008192 1.2140001 1.1066011e-38
0.074267834 -0.23463988 1.2163333 6.2797859e-39
0.080879688 -0.23722129 1.2190001 4.8093292e-39
0.025710305 -0.22595967 1.2121818 1.4838441e-38
0.034801908 -0.22609717 1.2100002 1.2717201e-38
0.045756306 -0.2262056 1.21 1.1239913e-38
0.055526916 -0.22507419 1.2106314 1.3454052e-38
0.064398736 -0.22461356 1.2122225 1.5576726e-38
0.073285088 -0.22545621 1.2181666 1.7238771e-38
0.067990474 -0.21780001 1.21 2.1948305e-38
0.075747043 -0.21638592 1.2124001 2.2958507e-38
0.085023992 -0.2153558 1.2139091 2.3234018e-38
0.094185129 -0.21357749 1.2171249 2.3417689e-38
0.10448572 -0.21129335 1.219 2.341769e-38
0.11029048 -0.21129334 1.2190001 2.3417687e-38
0.095480002 -0.20739809 1.2115 2.341769e-38
0.10439119 -0.20391166 1.2151334 2.341769e-38
0.11029048 -0.20432764 1.2190001 2.341769e-38
0.10487937 -0.19474255 1.2123334 2.3233657e-38
0.11029048 -0.19504002 1.2190001 2.3417687e-38
0.10712504 -0.18434338 1.2118182 2.1845325e-38
0.11203191 -0.18575239 1.2190001 2.2035107e-38
0.10836904 -0.17523286 1.2105001 1.934526e-38
0.11307677 -0.17530382 1.2190001 1.964054e-38
-0.10717143 -0.16018096 1.21 9.2226458e-41
-0.023031855 -0.16609979 1.215889 5.6358557e-39
-0.01626718 -0.16290733 1.2131538 1.4844563e-38
0.10845185 -0.16479048 1.21 1.8040067e-38
0.1141736 -0.16510141 1.2153637 1.2251966e-38
-0.10717144 -0.15557143 1.21 9.2272701e-41
-0.022058096 -0.15556762 1.2190001 2.5761247e-39
-0.015065429 -0.15522154 1.2163001 1.2635137e-38
0.10613715 -0.15381843 1.2113335 1.7211331e-38
0.11281212 -0.15422164 1.2175715 7.7296338e-39
-0.01395961 -0.14589778 1.2152354 8.8562147e-39
0.097095244 -0.14368038 1.2108001 1.6741363e-38
0.10441031 -0.14576015 1.2141178 1.6381249e-38
0.111889 -0.14562637 1.2167779 8.6515985e-39
-0.1057762 -0.13113715 1.2105001 1.7978872e-38
-0.05761905 -0.13021906 1.21 1.6595922e-38
-0.011979049 -0.13796128 1.2173334 1.2723686e-38
-0.0046293209 -0.13534158 1.214643 1.6683413e-38
0.0019206349 -0.13098732 1.21 1.5841379e-38
0.088733338 -0.13021906 1.21 1.7610423e-38
0.09489394 -0.13488933 1.2127371 1.6287981e-38
0.10367175 -0.13565968 1.2140002 1.7418455e-38
-0.11029048 -0.12538287 1.2190001 1.6871102e-38
-0.10432488 -0.12497944 1.2131177 1.7613323e-38
-0.095359527 -0.12244048 1.21 1.7610076e-38
-0.063833654 -0.12190159 1.2113335 1.6872504e-38
-0.058771431 -0.12215238 1.21 1.6137118e-38
-0.0011609525 -0.12886572 1.2190001 1.6685237e-38
0.0050083338 -0.12527692 1.2142501 1.6410067e-38
0.012108572 -0.12167619 1.2110001 1.6412237e-38
0.076748572 -0.12146095 1.21 1.7516447e-38
0.085778743 -0.12366413 1.2116666 1.7885579e-38
0.094528891 -0.12503393 1.2133335 1.7791946e-38
0.10058858 -0.12833716 1.2140001 1.7793382e-38
-0.11029048 -0.11029048 1.2190001 2.2683006e-38
-0.10439143 -0.11541765 1.2154707 1.5949108e-38
-0.094855249 -0.11451411 1.2146 1.1990845e-38
-0.085536256 -0.11443012 1.213722 1.4477622e-38
-0.075006478 -0.11538781 1.2115999 1.5951292e-38
-0.06570591 -0.11642972 1.2104 1.6780321e-38
0.0073526995 -0.11880414 1.2190001 1.6135314e-38
0.015192573 -0.11531258 1.2148669 1.6410817e-38
0.023623809 -0.11235714 1.21 1.659413e-38
0.049552381 -0.11178096 1.21 1.7241649e-38
0.055314288 -0.11178096 1.21 1.7333487e-38
0.066279054 -0.11344901 1.2114445 1.7517524e-38
0.074466012 -0.11561821 1.2146844 1.7700119e-38
0.085879423 -0.1158524 1.2165 1.8255086e-38
0.092577882 -0.11523439 1.2167778 1.8163615e-38
-0.11366781 -0.1041691 1.219 1.9824235e-38
-0.10444255 -0.10466277 1.2140002 2.1757799e-38
-0.095608942 -0.10487752 1.2163078 1.2165109e-38
-0.085641623 -0.10722677 1.2185 1.0051845e-38
-0.074190997 -0.10828277 1.2154545 9.5887323e-39
-0.067990474 -0.10832381 1.21 1.3841246e-38
0.019255621 -0.10694934 1.2180001 1.6596283e-38
0.025626715 -0.10549147 1.2144735 1.6595211e-38
0.034085207 -0.10379416 1.2118669 1.6871442e-38
0.045241237 -0.10491006 1.2127917 1.6962908e-38
0.055579245 -0.10536287 1.2158002 1.6872515e-38
0.063886225 -0.10590376 1.2166667 1.7147671e-38
-0.12190001 -0.098680958 1.2190001 1.6778535e-38
-0.11508929 -0.095357865 1.2185833 1.843985e-38
-0.10519601 -0.094791822 1.2138003 2.1022051e-38
-0.095251732 -0.094187409 1.2163076 2.2772302e-38
-0.08939334 -0.091715246 1.2190001 2.3417613e-38
0.028249843 -0.097906992 1.2190001 1.7149454e-38
0.035383653 -0.09609811 1.2181667 1.7701199e-38
0.045023963 -0.095237903 1.2187368 1.8254359e-38
0.055029143 -0.098216586 1.2190001 1.7423152e-38
-0.11209641 -0.085265502 1.219 1.8900115e-38
-0.10395214 -0.085471682 1.2127501 2.055963e-38
-0.094713986 -0.085478649 1.2128127 2.2403901e-38
-0.085278824 -0.084705725 1.2162499 2.2496095e-38
-0.07430096 -0.080105722 1.2190001 1.991246e-38
-0.066517636 -0.081984296 1.2181668 1.8346558e-38
0.044873338 -0.084446684 1.219 2.0929483e-38
0.054177783 -0.082427621 1.2190001 2.203476e-38
-0.11183842 -0.075074926 1.2190001 1.9084153e-38
-0.10388952 -0.075028583 1.2120001 2.0375963e-38
-0.09452533 -0.074929908 1.2103999 2.2127676e-38
-0.084770739 -0.075128824 1.2136089 2.2680125e-38
-0.074511252 -0.073739819 1.2186667 1.9914257e-38
-0.066121913 -0.076789342 1.2180001 1.8440208e-38
0.029023811 -0.071979053 1.2190001 1.7148041e-38
0.032893658 -0.071592078 1.2190001 1.8438068e-38
0.045277145 -0.074300967 1.219 2.2128753e-38
0.05456477 -0.073562175 1.219 2.2681205e-38
-0.11029048 -0.065013334 1.2190001 1.9638776e-38
-0.10388952 -0.06464 1.2120001 2.1665617e-38
-0.094495237 -0.064533331 1.21 2.2956713e-38
-0.084871218 -0.064975657 1.2134446 2.3049269e-38
-0.075866953 -0.064276472 1.2175715 2.1112799e-38
-0.068496197 -0.061530478 1.2190001 1.9267445e-38
0.029023811 -0.067335248 1.2190001 1.6782119e-38
0.035602544 -0.067722231 1.2190001 1.7150189e-38
0.045664124 -0.065400325 1.219 1.8716439e-38
0.055228174 -0.064847492 1.2190001 2.0191574e-38
-0.111883 -0.055197559 1.2182858 1.9046725e-38
-0.10417826 -0.055175457 1.2114116 2.2104654e-38
-0.094495244 -0.055314288 1.21 2.3325854e-38
-0.085378572 -0.055383813 1.2115002 2.341769e-38
-0.075199343 -0.055535253 1.2148001 2.3141097e-38
-0.068327628 -0.054436192 1.2160001 2.1020238e-38
0.048760004 -0.059208576 1.2190001 1.8254738e-38
0.0537908 -0.057660639 1.2190001 1.8255456e-38
-0.12190001 -0.042955242 1.2190001 1.9444597e-38
-0.11542123 -0.044779845 1.2159444 1.727913e-38
-0.10522958 -0.045371518 1.2106954 1.9396382e-38
-0.094495252 -0.047247618 1.21 2.3138939e-38
-0.084815241 -0.047708571 1.21 2.341769e-38
-0.074032009 -0.045551434 1.2107998 2.3417689e-38
-0.065196835 -0.043798227 1.2124001 2.2126943e-38
-0.05896572 -0.041622862 1.2140001 1.9636227e-38
-0.12190001 -0.034828573 1.2190001 1.7860336e-38
-0.11566482 -0.034700062 1.2144376 1.7551005e-38
-0.10947619 -0.035723813 1.21 1.8015561e-38
-0.071735725 -0.035435714 1.21 2.341769e-38
-0.064649761 -0.03463643 1.21225 2.2772677e-38
-0.0579747 -0.034190208 1.2140002 1.9821344e-38
-0.12308396 -0.024352793 1.2175715 1.8037919e-38
-0.11595402 -0.025729526 1.2122858 1.7733586e-38
-0.070295244 -0.028809523 1.21 2.341769e-38
-0.063640952 -0.025957143 1.2113334 2.1297548e-38
-0.057809524 -0.025436193 1.2140001 1.9546197e-38
-0.010448572 -0.022058096 1.2190001 2.3417686e-38
-0.00464381 -0.022058096 1.2190001 2.341769e-38
0.0054082549 -0.022801906 1.2173334 2.3325854e-38
0.015092382 -0.024380002 1.2190001 2.341769e-38
-0.12487925 -0.014810377 1.2158422 1.8692292e-38
-0.11589434 -0.015123252 1.2104706 1.7917616e-38
-0.061844449 -0.018822223 1.21 1.8807899e-38
-0.05761905 -0.018438095 1.21 1.9269966e-38
-0.03366762 -0.014318413 1.2190001 2.295851e-38
-0.026642382 -0.018539526 1.2165 2.3417687e-38
0.022058096 -0.019736191 1.2190001 2.341769e-38
-0.13118763 -0.00464381 1.2190001 2.0098999e-38
-0.12490162 -0.0046268455 1.2143126 1.8326743e-38
-0.11639048 -0.0046095247 1.21 1.6815586e-38
-0.066216335 -0.0054470757 1.2137144 1.6316834e-38
-0.043139596 -0.006448437 1.2148573 2.0099007e-38
-0.038154289 -0.0080933347 1.2140001 2.1024924e-38
0.11679181 -0.0032506671 1.219 2.341769e-38
0.12491848 -0.0030184768 1.219 2.341769e-38
0.13467048 -0.002321905 1.219 2.341769e-38
0.14395812 -0.0011609525 1.2190001 2.341769e-38
-0.12484496 0.0044030491 1.2160001 1.926454e-38
-0.11754286 0.0046095243 1.21 1.6945953e-38
-0.070987627 0.0051971432 1.2120001 2.0930923e-38
-0.066805124 0.005492501 1.2146251 2.0745093e-38
0.10796859 0.0058047622 1.2190001 2.2497171e-38
0.11488574 0.0046404763 1.2185 2.3325494e-38
0.12509209 0.0046292264 1.2161875 2.341769e-38
0.13502371 0.0048024571 1.2139475 2.341769e-38
0.14543822 0.0044166949 1.2148236 2.341769e-38
0.15500161 0.0046201791 1.2145624 2.3049989e-38
0.16395169 0.0055967472 1.2165833 2.1113157e-38
0.17066 0.0081266677 1.2190001 1.8068174e-38
-0.12328129 0.011980636 1.2173336 1.9363596e-38
-0.1161531 0.015727382 1.2120001 1.7333154e-38
-0.08181905 0.019590477 1.21 1.9553024e-38
-0.074089333 0.015696572 1.2118 1.853242e-38
-0.065817527 0.015007621 1.2124001 2.1390104e-38
0.10719462 0.013544447 1.2190001 2.092985e-38
0.11459029 0.01504781 1.2154002 2.2128033e-38
0.12429905 0.014620955 1.2122222 2.3325494e-38
0.13406032 0.01037143 1.21 2.341769e-38
0.14750478 0.010371429 1.21 2.341769e-38
0.15480317 0.014980952 1.21 1.9822055e-38
0.16311477 0.014211635 1.2146429 1.8253653e-38
0.17066 0.010448572 1.2190001 1.8345479e-38
-0.12190001 0.024380002 1.2190001 1.9914972e-38
-0.11494837 0.02498191 1.2134615 1.936107e-38
-0.10500077 0.02884762 1.2116002 2.0190851e-38
-0.08142826 0.02431651 1.2156668 1.9456878e-38
-0.074672394 0.02519249 1.2145557 1.8530594e-38
-0.064898863 0.025638031 1.2124667 2.1391547e-38
0.10796858 0.024380002 1.2190001 1.8715007e-38
0.11482631 0.025281455 1.2153159 1.9639838e-38
0.1230038 0.024924953 1.2116001 2.1759252e-38
0.15496048 0.025443198 1.2142143 1.3548444e-38
0.16192573 0.022801906 1.2173334 1.0430715e-38
-0.10636954 0.032373335 1.2140001 2.0375234e-38
-0.074048147 0.035052195 1.2186667 1.9455077e-38
-0.064916909 0.034776788 1.2171249 1.8716446e-38
-0.058353655 0.035556514 1.2173334 2.0563586e-38
0.1164592 0.034129091 1.2163076 1.76101e-38
0.12402243 0.035245862 1.2118462 1.8809708e-38
0.14681619 0.035836954 1.2138001 1.9266708e-38
0.1526508 0.034010164 1.2173333 1.4474371e-38
-0.072559528 0.04121381 1.2190001 1.9823851e-38
-0.064934768 0.045221437 1.2175 1.8808987e-38
-0.058105595 0.045960836 1.214125 1.8162533e-38
0.1187074 0.044406429 1.219 1.8255093e-38
0.1248344 0.04508362 1.2137001 1.8070702e-38
0.13466725 0.046003435 1.2105999 2.056035e-38
0.14602087 0.045197621 1.2168001 2.0006086e-38
0.15208477 0.044116192 1.2190001 1.5486367e-38
-0.062691435 0.05224286 1.2190001 1.8439489e-38
0.1195781 0.05224286 1.2190001 1.862424e-38
0.1250897 0.055599235 1.2161875 1.8624958e-38
0.13503088 0.055314597 1.2140002 1.7887743e-38
0.14516251 0.055048946 1.2178462 1.5765433e-38
0.1270082 0.062459242 1.2190001 1.7241283e-38
0.1346705 0.062691428 1.219 1.4194526e-38
0.14047524 0.061530478 1.2190001 1.1982549e-38
-0.040550001 0.095005244 1.2165 1.7430359e-38
-0.038170002 0.097164288 1.2145001 1.7795912e-38
0.031114288 0.097952388 1.21 2.1018765e-38
0.028809523 0.10601905 1.21 1.8580319e-38
0.034620576 0.10500459 1.2115999 1.6567476e-38
0.16944288 -0.46158576 1.2270001 1.8091231e-38
0.17411718 -0.46158576 1.2270001 2.341769e-38
0.19568001 -0.46008098 1.223 1.4125049e-38
0.16635163 -0.45606136 1.2266002 1.0343975e-38
0.1749748 -0.45531258 1.2264668 2.1023489e-38
0.18112858 -0.45340574 1.2270001 2.2128362e-38
0.19569029 -0.45523611 1.2238889 1.0066679e-38
0.20383334 -0.45134526 1.223 1.9720861e-38
0.16710573 -0.44522575 1.2270001 8.7744672e-39
0.17554574 -0.44529191 1.2261111 1.798033e-38
0.18161112 -0.44411302 1.2250001 2.2313491e-38
0.19883868 -0.44359565 1.2238001 1.4581689e-38
0.20542 -0.44421735 1.2234703 2.0009703e-38
0.21151145 -0.44055146 1.2270001 1.9460849e-38
0.16710572 -0.43120289 1.2270001 5.644164e-39
0.17645428 -0.43494233 1.2270001 1.659882e-38
0.18300498 -0.43695655 1.2256666 1.8806479e-38
0.19865716 -0.4382143 1.2270001 1.1629299e-38
0.20536542 -0.43571311 1.2256668 2.0011848e-38
0.21105176 -0.43493241 1.2243335 2.1764645e-38
0.16944288 -0.4265286 1.2270001 1.0146598e-38
0.17723337 -0.42536002 1.2270002 1.9182816e-38
0.18112858 -0.42536005 1.2270001 1.9363982e-38
0.20729621 -0.42462119 1.2242001 2.139587e-38
0.21250339 -0.42616859 1.2252223 2.2036558e-38
0.17832403 -0.41671261 1.2270001 1.936215e-38
0.1829983 -0.41437545 1.2270001 1.9731317e-38
0.19164574 -0.41016859 1.2270001 2.341769e-38
0.2073046 -0.41858235 1.2270001 1.6044959e-38
0.21151145 -0.41951719 1.2270001 1.8444918e-38
0.18596439 -0.40436673 1.2250003 2.1849292e-38
0.19218573 -0.40650192 1.223 2.341769e-38
0.21484479 -0.40224433 1.2260002 2.3141825e-38
0.17801242 -0.39225054 1.2270001 2.2956346e-38
0.18237077 -0.39488944 1.2241429 2.0283043e-38
0.21548097 -0.39873683 1.223 2.341769e-38
0.22516479 -0.39666858 1.2250001 2.3417689e-38
0.23151398 -0.3957178 1.2256668 2.3231759e-38
0.1750775 -0.38462487 1.2248182 1.8718248e-38
0.1805381 -0.38786572 1.223 2.1387253e-38
0.16944288 -0.37744862 1.2270001 1.3838377e-38
