# .PCD v0.7 - Point Cloud Data file format
VERSION 0.7
FIELDS x y z rgb
SIZE 4 4 4 4
TYPE F F F F
COUNT 1 1 1 1
WIDTH 1065
HEIGHT 1
VIEWPOINT 0 0 0 1 0 0 0
POINTS 1065
DATA ascii
0.30255145 0.26542288 1.4440001 1.3278714e-38
0.34769428 0.26661146 1.4430001 9.4929255e-39
0.35113001 0.26455003 1.4430001 9.9574938e-39
0.36018002 0.26082003 1.4490001 1.2907384e-38
0.29808003 0.27462 1.4490002 1.1432252e-38
0.30548596 0.27480245 1.4443846 1.1893596e-38
0.31471145 0.27898002 1.4430002 1.2816259e-38
0.32433143 0.27898002 1.4430001 1.2626845e-38
0.33808288 0.27386576 1.4450001 1.0233707e-38
0.34222576 0.27332479 1.4470003 1.0325887e-38
0.29946002 0.28152001 1.4490001 7.9335129e-39
0.30485374 0.28416285 1.4484003 8.5713251e-39
0.31464005 0.28566 1.4490002 6.9150772e-39
0.32554689 0.28499088 1.4484003 1.1805011e-38
0.33258 0.28014004 1.4490001 1.2718293e-38
0.14450002 0.3068867 1.4450001 9.6765853e-39
0.20508572 -0.1330286 1.4550002 1.7196234e-38
0.21534002 -0.13330573 1.455 1.9215503e-38
0.22448573 -0.1334905 1.4550002 1.9949164e-38
0.23280001 -0.1344143 1.455 2.1941456e-38
0.19746429 -0.12263571 1.455 2.2308411e-38
0.20290819 -0.12649593 1.4550002 1.7665843e-38
0.21478572 -0.12887143 1.455 2.1233373e-38
0.26189998 -0.12748572 1.455 1.9497483e-38
0.16767143 -0.11362858 1.455 1.1074643e-38
0.17475398 -0.11470634 1.455 1.4480866e-38
0.18568571 -0.1164 1.455 2.1671016e-38
0.19400001 -0.11778571 1.455 2.341769e-38
0.28130001 -0.11224286 1.455 1.7564263e-38
0.17217501 -0.10600714 1.455 1.1891094e-38
0.28248778 -0.10472041 1.4550002 1.6554105e-38
0.17321429 -0.094228581 1.4550002 1.1063135e-38
0.28525919 -0.093634702 1.4550002 1.5761141e-38
0.17460001 -0.08452858 1.4550002 1.0690405e-38
0.28763473 -0.084132656 1.4550002 1.3095042e-38
0.17479797 -0.075422458 1.4550002 1.0780783e-38
0.28684285 -0.075105719 1.455 1.530699e-38
0.29238573 -0.076214284 1.455 1.548995e-38
0.30347145 -0.070671432 1.455 1.5574561e-38
0.17598572 -0.06512858 1.4550002 1.1517268e-38
0.28314766 -0.065590478 1.4550002 1.5488504e-38
0.17667857 -0.055428572 1.455 1.4650873e-38
0.27852857 -0.052657146 1.455 1.4565826e-38
0.28199285 -0.057507146 1.455 1.4565822e-38
0.16767143 -0.045728575 1.455 1.6747427e-38
0.17321429 -0.04711429 1.455 7.5413231e-39
0.19815715 -0.040185712 1.455 5.5418678e-39
0.20370001 -0.040185712 1.4550002 8.4002686e-39
0.27714288 -0.044342857 1.455 9.3103517e-39
0.28130001 -0.045728575 1.455 6.9121625e-39
0.18984286 -0.034642857 1.455 8.384717e-39
0.19538572 -0.035566669 1.4550002 1.7665273e-39
0.20567961 -0.035830613 1.4550002 4.9893989e-39
0.21534002 -0.033534285 1.455 5.7183291e-39
0.22171429 -0.031871427 1.455 4.5201572e-39
0.26744285 -0.031871427 1.455 3.0554654e-39
0.27354002 -0.035751428 1.455 2.2253629e-39
0.11778571 -0.024942856 1.455 6.3737486e-39
0.12055714 -0.020785715 1.455 8.3058786e-39
0.18845715 -0.029100001 1.455 1.5564823e-38
0.19261429 -0.029100001 1.455 8.9411698e-39
0.22642572 -0.027991429 1.455 5.3441095e-39
0.23557144 -0.027714286 1.455 5.6217698e-39
0.24471715 -0.027437145 1.455 6.5405059e-39
0.25358576 -0.024942858 1.4550002 7.9316842e-39
0.11570714 -0.015935715 1.455 4.165015e-39
0.19677143 -0.016628571 1.455 1.7611146e-38
0.20185238 -0.013395239 1.4550002 1.8531662e-38
0.20716429 -0.0090071429 1.455 2.0468146e-38
0.21423145 -0.0080371425 1.455 2.0560349e-38
0.22448571 -0.006928571 1.455 2.0928765e-38
0.23616533 -0.0029693877 1.4550002 2.1391194e-38
0.24527143 -0.0027714288 1.4550002 2.092517e-38
0.25497144 -0.0013857143 1.455 2.0177912e-38
0.24527143 0.0013857143 1.455 1.8021071e-38
0.25497144 0.0013857143 1.455 1.8770124e-38
0.26467142 0.0032333336 1.4550002 1.8196763e-38
0.27464861 0.0080371425 1.455 1.7187598e-38
0.28372502 0.015589286 1.455 1.7281946e-38
0.2875357 0.024942856 1.455 1.4703756e-38
0.28822857 0.034642857 1.4550002 1.3505219e-38
0.29238576 0.034642857 1.4550002 1.3788603e-38
0.15935715 0.041571427 1.455 1.1027827e-39
0.1654543 0.042402856 1.455 2.6791229e-39
0.17155145 0.046282861 1.455 1.0608618e-38
0.28892145 0.045728575 1.455 1.3046401e-38
0.29238573 0.044342861 1.455 1.369318e-38
0.076214284 0.054042861 1.455 5.5209198e-40
0.17598571 0.056121435 1.455 9.230381e-39
0.28709483 0.055302601 1.4550002 1.296933e-38
0.29488003 0.056260001 1.455 1.3435699e-38
0.30070001 0.058200002 1.455 7.076738e-39
0.073442861 0.066514283 1.455 4.6026769e-40
0.17764857 0.064574294 1.455 6.0968352e-39
0.18337619 0.066052377 1.4550002 1.3276517e-38
0.27760479 0.06697619 1.4550002 1.4661253e-38
0.28583506 0.065380521 1.4550002 1.3258891e-38
0.29515713 0.065128572 1.455 1.3172786e-38
0.07482858 0.0757524 1.4550002 1.0877271e-38
0.081757143 0.07482858 1.455 1.1439448e-38
0.18984286 0.072057143 1.455 1.3182897e-38
0.19261429 0.074828573 1.455 1.2998488e-38
0.27631146 0.07482858 1.455 1.4197407e-38
0.28462571 0.07316573 1.455 1.4099445e-38
0.29515716 0.07205715 1.4550002 1.4009771e-38
0.077877149 0.083974287 1.455 1.6223526e-38
0.081757143 0.084528565 1.4550002 1.3926911e-38
0.19630954 0.08452858 1.4550002 1.2723005e-38
0.27575716 0.084528573 1.455 1.4198844e-38
0.28222382 0.085452378 1.4550002 1.4290681e-38
0.077402048 0.093634702 1.4550002 1.7060517e-38
0.081757143 0.091457143 1.455 1.9917827e-38
0.097000003 0.098385714 1.455 1.0410456e-38
0.10531428 0.098385714 1.455 7.1955891e-39
0.11501428 0.098385714 1.4550002 6.2743475e-39
0.12055714 0.098385714 1.455 8.4027545e-39
0.19815715 0.090071432 1.455 1.3091058e-38
0.2047078 0.095110387 1.4550002 1.2999584e-38
0.21409285 0.097692855 1.455 1.3368364e-38
0.26651904 0.097461909 1.4550002 1.456475e-38
0.27460241 0.094459526 1.4550002 1.4751299e-38
0.28222382 0.090995245 1.4550002 1.4382877e-38
0.067900002 0.10947143 1.455 1.4382885e-38
0.073789284 0.10635357 1.455 1.447653e-38
0.096999995 0.10531428 1.455 1.6502265e-38
0.10448285 0.10171143 1.455 7.836239e-39
0.20924285 0.10254286 1.455 1.3276155e-38
0.21478572 0.10392857 1.455 1.3553108e-38
0.22480549 0.10435493 1.4550002 1.3829337e-38
0.23557144 0.10531429 1.455 1.4197042e-38
0.24487551 0.10353265 1.4550002 1.3643878e-38
0.25289288 0.10185 1.455 1.2817345e-38
0.26189998 0.10115714 1.455 1.4103779e-38
0.06679143 0.11446001 1.455 1.4383236e-38
0.072651029 0.11501429 1.4550002 1.4566915e-38
0.098385714 0.1150143 1.4550002 1.7980323e-38
0.10115714 0.1164 1.455 1.8256188e-38
0.22753429 0.11556857 1.455 1.4845647e-38
0.23557147 0.11501428 1.4550002 1.5858729e-38
0.067900002 0.12055714 1.455 1.419993e-38
0.072403572 0.123675 1.455 1.4383604e-38
0.10254286 0.12055714 1.455 1.8163629e-38
0.11501428 0.12471429 1.4550002 1.6689212e-38
0.21617144 0.12887143 1.455 1.3189027e-38
0.22544506 0.12503406 1.4550002 1.6323307e-38
0.23557143 0.1247143 1.455 1.7610439e-38
0.24471715 0.12720858 1.455 1.8991568e-38
0.067900002 0.1344143 1.4550002 1.5027883e-38
0.070671432 0.1358 1.455 1.5027885e-38
0.21663335 0.13487619 1.4550002 1.2540754e-38
0.22448571 0.13579999 1.455 1.3461654e-38
0.23557143 0.13579999 1.455 1.4201386e-38
0.24527143 0.13580002 1.4550002 1.586161e-38
0.25192288 0.13774 1.455 1.6136056e-38
0.067900002 0.14688572 1.455 1.5119376e-38
0.070671432 0.1455 1.455 1.4843501e-38
0.21755715 0.14411429 1.455 7.7375707e-39
0.22448573 0.1455 1.4550002 8.5835599e-39
0.2364029 0.14522287 1.455 1.3645678e-38
0.24527141 0.1455 1.455 1.4107373e-38
0.25279391 0.14550002 1.4550002 1.45687e-38
0.067900002 0.15242857 1.455 1.493784e-38
0.22621787 0.15346786 1.455 4.9814773e-39
0.23557143 0.1552 1.455 1.088628e-38
0.24527144 0.15557791 1.4550002 1.3276528e-38
0.25279391 0.15579389 1.4550002 1.3461268e-38
0.14827143 0.16628572 1.455 1.5214078e-38
0.23695716 0.16351429 1.4550002 9.5966118e-39
0.2444796 0.1645041 1.4550002 1.2541111e-38
0.17875716 0.17598572 1.4550002 1.1237461e-38
0.18643187 0.17534618 1.4550002 1.7241317e-38
0.19469287 0.17598571 1.455 1.9819905e-38
0.21478572 0.17875715 1.455 2.1849945e-38
0.15843335 0.18891905 1.4550002 1.8351265e-38
0.1645041 0.18548776 1.4550002 1.5763662e-38
0.17367619 0.18245238 1.4550002 1.7335987e-38
0.18568571 0.18152858 1.455 2.038673e-38
0.19538572 0.1815286 1.4550002 2.2040153e-38
0.20508572 0.18152858 1.455 2.2315663e-38
0.21478574 0.1815286 1.4550002 2.2591169e-38
0.30555004 0.18811072 1.455 2.028665e-38
0.31495306 0.18746737 1.4550002 2.3141463e-38
0.14688572 0.19677143 1.455 1.5857993e-38
0.15421019 0.19498979 1.4550002 1.4753488e-38
0.28822857 0.19815715 1.455 1.558179e-38
0.29515716 0.19617756 1.4550002 1.6596676e-38
0.30447927 0.19513378 1.4550002 1.8258707e-38
0.31400284 0.19372284 1.455 2.2681205e-38
0.32410321 0.19569367 1.455 2.341769e-38
0.33554083 0.1969694 1.4550002 2.341769e-38
0.34435001 0.19746429 1.455 2.341769e-38
0.14480714 0.20162143 1.455 1.604275e-38
0.15104286 0.20092857 1.455 1.548815e-38
0.2870948 0.20546365 1.4550002 1.484458e-38
0.29488 0.2042543 1.455 1.5859453e-38
0.33395714 0.20092857 1.4550002 2.341769e-38
0.13995716 0.21478572 1.4550002 1.4565462e-38
0.28684285 0.21478572 1.455 1.4473996e-38
0.29238576 0.21478574 1.4550002 1.4657676e-38
0.38315001 0.21686429 1.455 1.3553831e-38
0.12702382 0.22310001 1.4550002 1.5035088e-38
0.14411429 0.22587143 1.455 1.4478657e-38
0.28822857 0.22448571 1.455 1.3830422e-38
0.29238573 0.22448571 1.455 1.4106649e-38
0.36998573 0.22864287 1.455 1.9703181e-39
0.37552857 0.22725713 1.4550002 1.2175937e-38
0.38291904 0.22310001 1.4550002 1.3553471e-38
0.1358 0.23972858 1.455 1.6507677e-38
0.28822857 0.23557143 1.455 1.3276172e-38
0.29238573 0.23557143 1.455 1.3461271e-38
0.36721429 0.23726508 1.455 1.0789055e-38
0.37275717 0.23510954 1.4550002 1.3008584e-38
0.097000003 0.24665715 1.455 1.5303742e-38
0.10208096 0.24711905 1.4550002 1.2810518e-38
0.1344143 0.24388571 1.455 1.3921207e-38
0.28822857 0.24527143 1.4550002 1.5030406e-38
0.29307857 0.24596429 1.455 1.613457e-38
0.35890001 0.24665715 1.455 1.1707765e-38
0.36582857 0.24527143 1.4550002 1.1984726e-38
0.096230164 0.25450954 1.455 1.5675038e-38
0.10208096 0.25497144 1.4550002 1.4011564e-38
0.13857143 0.25497144 1.455 1.4008683e-38
0.1427286 0.25635716 1.4550002 9.7518967e-39
0.28906003 0.25413999 1.455 1.235746e-38
0.29377148 0.25497144 1.455 1.3646412e-38
0.36825362 0.25427857 1.455 1.1984696e-38
0.37513271 0.25279391 1.4550002 1.4196319e-38
0.38107142 0.25220001 1.455 1.5123306e-38
0.095152378 0.26282379 1.4550002 1.5120797e-38
0.10392857 0.26467144 1.455 1.5027521e-38
0.28822857 0.26467142 1.4550002 1.1799953e-38
0.29349428 0.26411712 1.455 1.1985069e-38
0.36582857 0.26189998 1.455 1.5489939e-38
0.28961429 0.27298576 1.4550002 1.1799957e-38
0.2935735 0.27496535 1.4550002 1.1799236e-38
0.34365714 0.27852857 1.455 1.2260919e-38
0.35197145 0.27298573 1.455 1.1154584e-38
0.29608095 0.28314763 1.4550002 9.4982967e-39
0.30162382 0.28869051 1.4550002 1.3362594e-38
0.32702857 0.28961429 1.455 9.8721491e-39
0.33554086 0.28605103 1.4550002 1.4379632e-38
0.30578098 0.29423332 1.4550002 1.5399141e-38
0.31490356 0.29481071 1.455 1.3179618e-38
0.32425717 0.29515716 1.4550002 8.7502765e-39
0.33534285 0.29515716 1.4550002 9.0402108e-39
0.34319526 0.29700476 1.4550002 1.1158236e-38
0.31455714 0.30523512 1.4550002 1.3802346e-38
0.3245343 0.30513436 1.4550002 1.3895249e-38
0.33534288 0.30485719 1.455 1.1978217e-38
0.34504285 0.30498314 1.4550002 1.1247148e-38
0.18861429 -0.13412572 1.4670001 3.4296472e-39
0.1945983 -0.13317887 1.4658002 9.0254775e-39
0.20175716 -0.13496858 1.4610001 1.2610278e-38
0.23332287 -0.13831715 1.4670001 2.0875126e-38
0.18433343 -0.12450177 1.4637694 1.272481e-38
0.19377193 -0.12601289 1.4620003 1.8242454e-38
0.2866343 -0.11270572 1.4610001 1.6356836e-38
0.29380003 -0.11095715 1.4655001 1.8798943e-38
0.16649811 -0.10485429 1.4636668 1.2634048e-38
0.28746918 -0.10658343 1.4610001 1.5530725e-38
0.2936576 -0.1050641 1.4652859 1.8158962e-38
0.16808057 -0.09560743 1.4634001 1.3822508e-38
0.17114572 -0.093225718 1.4610002 1.1157477e-38
0.28802574 -0.098791428 1.4610001 1.4278468e-38
0.29333493 -0.09436731 1.4643334 1.7704443e-38
0.30038574 -0.090814292 1.4670001 1.7060502e-38
0.16882382 -0.085113339 1.4650002 1.4099803e-38
0.17114572 -0.084877148 1.4610002 1.1248957e-38
0.29617858 -0.08457429 1.4617501 1.622786e-38
0.3011629 -0.085057147 1.4640001 1.6318629e-38
0.16888145 -0.075367145 1.4655001 1.69643e-38
0.17170231 -0.074302286 1.4610001 1.3905005e-38
0.2961424 -0.074673332 1.4610003 1.5212999e-38
0.30286765 -0.075137153 1.4610002 1.5301603e-38
0.1690543 -0.064268574 1.4670001 1.6426685e-38
0.17253715 -0.065397143 1.4610002 1.7873724e-38
0.28709811 -0.064469531 1.4610002 1.4565838e-38
0.29481882 -0.064493477 1.4631431 1.5026802e-38
0.30422488 -0.064014733 1.4637696 1.170991e-38
0.16905431 -0.054488581 1.4670002 7.0044058e-39
0.17300096 -0.056120958 1.4610002 1.4379693e-38
0.28643426 -0.054639999 1.4617501 1.4199929e-38
0.29340002 -0.057282865 1.4670001 1.5028267e-38
0.30597433 -0.057282865 1.4670001 3.6825171e-39
0.16836286 -0.048700001 1.4610001 1.2225631e-38
0.17114572 -0.048700001 1.4610001 8.1791647e-39
0.27967715 -0.041742861 1.4610001 3.8758837e-39
0.28489906 -0.046007626 1.4640001 5.8076254e-39
0.18784288 -0.032002859 1.4610001 1.8210783e-38
0.19563489 -0.032559432 1.4610001 4.0652705e-39
0.20509659 -0.033116002 1.4610001 4.5244634e-39
0.21288858 -0.032002859 1.4610001 3.9702219e-39
0.27550286 -0.034785714 1.4610001 4.1546384e-39
0.11560715 -0.021591431 1.4625001 3.884482e-39
0.19590728 -0.025199741 1.4626365 1.2628625e-38
0.20538001 -0.027942859 1.4670002 2.5926712e-39
0.2153576 -0.025855606 1.4646927 5.9959529e-39
0.2246086 -0.023662077 1.4615456 8.2914704e-39
0.23515144 -0.02226286 1.4610002 8.1953469e-39
0.24489143 -0.022262856 1.4610002 8.6566768e-39
0.25463143 -0.020871429 1.4610002 1.1429713e-38
0.11409715 -0.018088574 1.4610001 2.1381671e-39
0.1989743 -0.018088574 1.4610001 1.6783506e-38
0.20588765 -0.016270477 1.4640001 1.668808e-38
0.21457338 -0.015330478 1.4630003 1.6779935e-38
0.22548714 -0.015311906 1.4615002 1.6687024e-38
0.23526001 -0.0153127 1.4616668 1.6408629e-38
0.24439017 -0.015360319 1.4663335 1.6500459e-38
0.25253358 -0.015368572 1.4670001 1.6595187e-38
0.2184543 -0.0097399997 1.4610001 2.037846e-38
0.22541144 -0.0097399997 1.4610001 2.0373071e-38
0.23515144 -0.0083485711 1.4610002 2.092984e-38
0.24489145 -0.0083485711 1.4610002 2.0837291e-38
0.25474891 -0.0069615874 1.4616668 2.1021681e-38
0.26398572 -0.0032552383 1.4640001 2.08301e-38
0.27244288 -0.001397143 1.4670001 1.9447886e-38
0.26715431 0.0013914286 1.4610001 1.7936405e-38
0.27538905 0.003381633 1.4635717 1.7746233e-38
0.28454974 0.0064120004 1.4646001 1.7759215e-38
0.28802574 0.012522858 1.4610001 1.6905339e-38
0.2921043 0.016032858 1.4640001 1.5993074e-38
0.29504505 0.025109287 1.4647502 1.2767323e-38
0.29718575 0.034877148 1.4650002 1.3598829e-38
0.16465239 0.046844762 1.4610002 9.2127246e-40
0.29698288 0.044611428 1.4640001 1.2133059e-38
0.30038574 0.048900004 1.4670001 1.2606995e-38
0.16601534 0.055338442 1.4626366 7.3577978e-40
0.17207335 0.055657145 1.4610002 3.2344617e-39
0.29776573 0.05148286 1.4610001 1.5089087e-38
0.30410802 0.053793717 1.4634001 3.9579535e-39
0.16724972 0.064840578 1.4610001 3.5884129e-39
0.17313351 0.065794699 1.4610002 4.7866198e-39
0.16836286 0.070962861 1.4610001 1.106737e-38
0.1751302 0.072326951 1.4644287 1.244816e-38
0.18496546 0.074422084 1.464273 1.3091048e-38
0.19155335 0.078383818 1.4610002 1.2722635e-38
0.2866343 0.077920005 1.4610001 1.4105566e-38
0.29220003 0.077920005 1.4610001 1.4105917e-38
0.07299225 0.085326128 1.4618573 1.5309874e-38
0.19333813 0.085051432 1.4640001 1.244713e-38
0.28579944 0.083764002 1.4610001 1.4197405e-38
0.065230481 0.095411435 1.4625003 1.3828626e-38
0.072354287 0.094617143 1.4610002 1.457268e-38
0.19645621 0.094280958 1.4630002 1.2723358e-38
0.20175716 0.098791428 1.4610001 1.2815924e-38
0.27828574 0.096008576 1.4610001 1.5303389e-38
0.064058363 0.10524409 1.4622861 1.4106654e-38
0.071890481 0.10250191 1.4610002 1.438362e-38
0.10612807 0.107393 1.4610003 1.0317611e-38
0.11531857 0.10417287 1.4632502 3.7746707e-39
0.12130287 0.10318001 1.4640001 6.6496222e-39
0.19812194 0.10464477 1.4650002 1.2724435e-38
0.20454001 0.10574858 1.4610003 1.3091415e-38
0.21344514 0.10936629 1.4610001 1.3736787e-38
0.22402 0.10992287 1.4610002 1.4289608e-38
0.24683945 0.10825314 1.4610001 1.5578529e-38
0.25497931 0.10748787 1.4610002 1.5027872e-38
0.26469254 0.10542747 1.4610003 1.5026084e-38
0.27490661 0.10614613 1.4610003 1.4843851e-38
0.10658344 0.11521029 1.4610003 1.8440544e-38
0.11456573 0.11456572 1.4670001 1.4845617e-38
0.12294859 0.11037429 1.4670001 1.3190442e-38
0.19979145 0.11456572 1.4670001 1.3275099e-38
0.20481618 0.11564668 1.4630002 1.3921181e-38
0.21428001 0.11548856 1.4610003 1.4564753e-38
0.22322491 0.11509103 1.4610002 1.4567272e-38
0.24628288 0.11548857 1.4610002 1.6688135e-38
0.25498381 0.11564667 1.4630001 1.6873601e-38
0.26406002 0.11378954 1.4670001 1.696219e-38
0.27550575 0.11517029 1.4640001 1.7330255e-38
0.068180002 0.12801144 1.4610001 1.4660187e-38
0.10853143 0.12105429 1.4610001 1.8073942e-38
0.11580859 0.12138572 1.4650002 1.6872519e-38
0.12122001 0.12400287 1.4630002 1.5581785e-38
0.19923258 0.12658115 1.4670001 1.226491e-38
0.20481621 0.12540001 1.4630002 1.3463094e-38
0.21388246 0.12463225 1.4610003 1.4846746e-38
0.22123715 0.12383716 1.4610002 1.6873241e-38
0.24668044 0.12343962 1.4610002 1.7427132e-38
0.25480765 0.1253124 1.4620003 1.8070704e-38
0.26126572 0.12574287 1.4670001 1.8439122e-38
0.1982581 0.13542858 1.4660001 1.6688817e-38
0.20463207 0.13502891 1.4616668 1.5946946e-38
0.21209349 0.13536614 1.4610002 1.2447126e-38
0.25555909 0.13404095 1.4610002 1.7892079e-38
0.26310903 0.13584124 1.4661431 1.6873618e-38
0.19755602 0.1455823 1.4670001 1.733387e-38
0.2050281 0.14505954 1.4645002 1.6323661e-38
0.21338308 0.14507671 1.4614618 1.1985774e-38
0.25741428 0.14424478 1.4610002 1.5120788e-38
0.26331925 0.14465117 1.464273 1.5118629e-38
0.19560003 0.15508287 1.4670002 1.6784625e-38
0.20538001 0.15368573 1.4670002 7.831263e-39
0.21510494 0.15330818 1.4652859 3.5934772e-39
0.22216001 0.15530571 1.4625001 7.4670879e-39
0.25741428 0.15584001 1.4610001 1.3738208e-38
0.26073143 0.1533743 1.4640001 1.4014079e-38
0.1545562 0.16708669 1.4620001 1.6414437e-38
0.17725286 0.16818286 1.4655001 1.0971308e-38
0.18491003 0.16493002 1.4635003 1.466523e-38
0.19505392 0.16439679 1.4628752 1.9270679e-38
0.20468144 0.16765714 1.4670001 1.3549891e-38
0.21096858 0.1690543 1.4670001 1.4567637e-38
0.22690511 0.16340859 1.4636668 1.161264e-38
0.23399572 0.16714287 1.4625001 7.1001313e-39
0.24906573 0.16697143 1.4610001 1.2540388e-38
0.25522691 0.16522744 1.4628003 1.2354207e-38
0.1470992 0.17544125 1.4670002 1.5488856e-38
0.15501367 0.17456479 1.4663335 1.6509134e-38
0.16492574 0.17655431 1.4655002 1.44758e-38
0.17441078 0.17505299 1.4614618 1.0418506e-38
0.18320477 0.17207335 1.4610002 1.3195879e-38
0.19758287 0.17253716 1.4610001 1.8718579e-38
0.20482098 0.17555526 1.4630002 1.4656262e-38
0.21379301 0.17653014 1.4637275 1.5858712e-38
0.23497657 0.17393714 1.4634002 9.1330959e-39
0.24451196 0.17367561 1.4610003 1.1896101e-38
0.2530019 0.17440858 1.4650002 1.0512451e-38
0.31585431 0.17949431 1.4610002 2.3325854e-38
0.13831715 0.18721715 1.4670001 1.4384322e-38
0.14500216 0.18404217 1.4640002 1.539846e-38
0.15460716 0.18385288 1.4625003 1.6693535e-38
0.16181543 0.18242458 1.4622 1.9078709e-38
0.22246763 0.18159525 1.4630002 2.1940713e-38
0.2375143 0.18023144 1.4670001 5.9091635e-39
0.24450003 0.18023144 1.4670002 8.3941253e-39
0.25008857 0.18023144 1.4670001 8.66855e-39
0.29637432 0.18784289 1.4610002 1.7612249e-38
0.30434889 0.18353622 1.4636668 2.0839822e-38
0.31357858 0.18341288 1.4617501 2.3141822e-38
0.3251422 0.18427673 1.463308 2.341769e-38
0.33391714 0.18768287 1.4670002 2.341769e-38
0.14454572 0.19328801 1.4622002 1.5488855e-38
0.15259334 0.19155335 1.4610002 1.4569444e-38
0.27858001 0.19858764 1.4650002 1.4292126e-38
0.28475922 0.19554055 1.4637275 1.548852e-38
0.29428717 0.19236499 1.4610002 1.659739e-38
0.32652193 0.19155334 1.4610002 2.341769e-38
0.33533433 0.1926135 1.4610002 2.341769e-38
0.3449043 0.19315858 1.4617501 2.3417689e-38
0.35414577 0.19752002 1.4640001 2.3417689e-38
0.2776486 0.20510001 1.4650002 1.3921183e-38
0.28315574 0.20384431 1.4610001 1.438324e-38
0.12804972 0.21620059 1.4646001 1.6228938e-38
0.13587216 0.21655715 1.4670001 1.5487044e-38
0.27674246 0.21458411 1.464429 1.3737869e-38
0.28246 0.21428001 1.4610001 1.4290323e-38
0.12940286 0.22262858 1.4610001 1.5960277e-38
0.13540223 0.22473431 1.4656668 1.6504094e-38
0.14053428 0.22402 1.4610002 1.5767262e-38
0.27739501 0.22436216 1.4655001 1.3368721e-38
0.28351524 0.22566955 1.4616668 1.3737869e-38
0.38709545 0.22735944 1.4610001 1.3368371e-38
0.39099145 0.22402 1.4610002 1.4568356e-38
0.13656205 0.23424287 1.4652859 1.6874316e-38
0.14310735 0.23491962 1.4670002 1.3920818e-38
0.27784002 0.23455715 1.4660001 1.4842776e-38
0.28284284 0.23454192 1.4630002 1.4011925e-38
0.37787226 0.235549 1.4610002 1.6227852e-38
0.38555336 0.23486573 1.4650002 1.5578152e-38
0.13831715 0.24729431 1.4670001 1.4107386e-38
0.14390573 0.24170575 1.4670002 1.262865e-38
0.27850503 0.24434644 1.4640002 1.373752e-38
0.28385141 0.24489143 1.4610002 1.4476146e-38
0.37676796 0.24535526 1.4610002 1.4844933e-38
0.38142002 0.24589717 1.4670001 1.567325e-38
0.13803428 0.25096858 1.4640001 1.3274397e-38
0.27795908 0.25408667 1.4650002 1.2354219e-38
0.284895 0.25497928 1.4610002 1.1894329e-38
0.097400002 0.26854575 1.4610001 1.4748773e-38
0.13775143 0.26158857 1.4610001 1.6133445e-38
0.14053428 0.26158857 1.4610001 1.2625671e-38
0.27803144 0.26545715 1.4670001 1.1986504e-38
0.28324154 0.26438439 1.4628464 1.1892878e-38
0.27803144 0.27384001 1.4670001 1.1802107e-38
0.28470528 0.27505916 1.4637696 1.1891793e-38
0.29080859 0.27967715 1.4610001 1.2075083e-38
0.34924859 0.2768943 1.4610001 1.1520841e-38
0.28781146 0.28222287 1.4670001 1.1431152e-38
0.29286286 0.28636762 1.4620001 1.1343622e-38
0.34399906 0.2855019 1.4623336 1.4287443e-38
0.3646543 0.28851002 1.4670001 1.6779599e-38
0.29752359 0.29509002 1.4632502 1.548958e-38
0.30416632 0.29693088 1.4610001 1.6320782e-38
0.31168002 0.29915717 1.4610001 1.7241674e-38
0.34615654 0.29390067 1.4610002 1.5676498e-38
0.35499832 0.29526803 1.4652003 1.6134953e-38
0.36279148 0.2929343 1.4670002 1.6779233e-38
0.28547928 0.30551609 1.4648184 1.2354234e-38
0.29538617 0.30454776 1.4640003 1.3923346e-38
0.30432531 0.30392778 1.4610002 1.5119733e-38
0.31214383 0.30286765 1.4610002 1.6313939e-38
0.32142001 0.30194002 1.4610001 1.6682294e-38
0.34646574 0.30472288 1.4610001 1.0139356e-38
0.35342288 0.30472288 1.4610002 1.3084189e-38
0.40823144 -0.15291144 1.473 1.3184034e-38
0.23427716 -0.13888286 1.473 2.0783291e-38
0.16132857 -0.10240858 1.473 5.7291513e-39
0.2988086 -0.10381144 1.473 2.010262e-38
0.30161428 -0.10240858 1.473 2.0834443e-38
0.15758762 -0.095394284 1.473 6.6514397e-39
0.16444603 -0.095550165 1.473 1.1902238e-38
0.29880863 -0.096797153 1.473 1.853347e-38
0.30161428 -0.096797153 1.473 1.844201e-38
0.16694002 -0.085574292 1.473 1.7049695e-38
0.16694 -0.075754285 1.473 1.9911334e-38
0.15852286 -0.06733714 1.473 1.7632651e-39
0.16553715 -0.063128576 1.473 9.4169527e-39
0.16413428 -0.054711431 1.473 3.5949429e-39
0.29530144 -0.054711431 1.473 1.2819871e-38
0.30301714 -0.057517145 1.473 9.4118758e-39
0.16132857 -0.0491 1.473 1.8577731e-38
0.28758571 -0.042085715 1.473 2.2109295e-39
0.2917943 -0.046294287 1.473 1.9289448e-39
0.20541839 -0.022245307 1.4730002 1.106127e-38
0.2137019 -0.021978095 1.473 1.1246374e-38
0.25672287 -0.015431429 1.473 1.7238398e-38
0.26701051 -0.0060790479 1.473 2.1112799e-38
0.27589527 -0.0032733334 1.473 2.065325e-38
0.28478 -0.0014028571 1.473 2.0378132e-38
0.28618285 0.0014028571 1.473 2.0556754e-38
0.29272956 0.0060790479 1.473 1.9264237e-38
0.29768631 0.014870286 1.473 1.7215083e-38
0.2988086 0.021042857 1.473 1.4338677e-38
0.30161428 0.02525143 1.473 1.4258656e-38
0.30161428 0.037877142 1.473 1.2227084e-38
0.30161428 0.044891432 1.473 9.839716e-39
0.17816286 0.07715714 1.473 1.3551684e-38
0.18517715 0.078560002 1.473 1.2813386e-38
0.1886843 0.084872857 1.473 1.2538244e-38
0.19219144 0.088380001 1.473 1.2447125e-38
0.19387487 0.096235998 1.473 1.2539322e-38
0.11924285 0.10802 1.473 5.5167257e-39
0.12204857 0.10802 1.473 9.9654069e-39
0.19499715 0.10381144 1.473 1.2540048e-38
0.11924285 0.11503428 1.473 1.4567638e-38
0.12450356 0.11678785 1.473 1.5118997e-38
0.19780286 0.11503428 1.473 1.2815204e-38
0.26701051 0.11830761 1.473 1.7423895e-38
0.27075142 0.11783999 1.473 1.7239863e-38
0.12485428 0.12204857 1.473 1.5300889e-38
0.18938573 0.12765999 1.473 1.5488482e-38
0.19611943 0.12597656 1.473 1.2444988e-38
0.26626229 0.12429314 1.473 1.797743e-38
0.2728557 0.12275 1.473 1.8993737e-38
0.18763216 0.13537572 1.473 1.6872162e-38
0.19359431 0.1346743 1.473 1.5856198e-38
0.26724431 0.13257 1.473 1.8808982e-38
0.18693073 0.14414358 1.473 1.5309186e-38
0.19331372 0.1444943 1.473 1.7427133e-38
0.27075142 0.1444943 1.473 1.3642781e-38
0.18634617 0.15454811 1.4729999 7.8381195e-39
0.19219144 0.15010571 1.473 1.5689092e-38
0.20622 0.15852287 1.473 2.8477061e-39
0.21323429 0.15712 1.473 1.8403379e-39
0.22024857 0.15852286 1.473 5.7182955e-39
0.26560766 0.15478191 1.473 1.3644572e-38
0.16343287 0.16904429 1.473 1.7790506e-38
0.17535715 0.16694002 1.473 1.3001739e-38
0.18283907 0.16226381 1.473 1.0591705e-38
0.20657073 0.16413428 1.473 7.9274243e-39
0.21183144 0.16413429 1.473 1.0513891e-38
0.22445714 0.16553715 1.473 1.3284047e-38
0.26233429 0.16132857 1.473 1.2637956e-38
0.16600478 0.17255144 1.473 1.5860529e-38
0.21463715 0.17255142 1.473 1.2542964e-38
0.22679526 0.17582476 1.473 1.4100511e-38
0.23147143 0.17676 1.473 9.8516383e-39
0.25812572 0.17535713 1.473 9.8620653e-39
0.22586001 0.18096858 1.473 1.8531984e-38
0.23708288 0.18283907 1.473 4.2460549e-39
0.24456477 0.18470953 1.473 7.1944919e-39
0.25391716 0.18096858 1.473 9.1270016e-39
0.29600286 0.18751524 1.473 1.7426782e-38
0.33458143 0.18447572 1.473 2.341769e-38
0.34089431 0.18938573 1.473 2.341769e-38
0.27916858 0.19499715 1.473 1.5119028e-38
0.28758571 0.19219144 1.473 1.6410463e-38
0.35352001 0.19359429 1.473 2.3417683e-38
0.2741183 0.20397544 1.473 1.3552765e-38
0.13467428 0.21463715 1.473 1.4656217e-38
0.27145284 0.21463715 1.473 1.3184704e-38
0.27235472 0.22385593 1.4730002 1.3183255e-38
0.13888286 0.23708287 1.473 1.7240913e-38
0.14309144 0.23708287 1.473 1.410878e-38
0.27475962 0.23628123 1.4730002 1.5579622e-38
0.38859144 0.23988858 1.473 1.5946575e-38
0.13888286 0.2455 1.473 1.5858007e-38
0.14168859 0.24690285 1.473 1.4661273e-38
0.27355716 0.2455 1.473 1.3092864e-38
0.38578573 0.24269429 1.473 1.631898e-38
0.14379287 0.25321573 1.473 1.3087839e-38
0.27467945 0.25616175 1.473 1.2354217e-38
0.27496004 0.26514003 1.473 1.2261297e-38
0.27692401 0.27580175 1.473 1.143297e-38
0.35492286 0.27916858 1.473 1.2074374e-38
0.27916858 0.28197429 1.473 1.0879075e-38
0.28534114 0.28421888 1.473 1.1247128e-38
0.29039145 0.28758571 1.473 1.0787246e-38
0.35323945 0.28421888 1.473 1.3920077e-38
0.28758571 0.29460001 1.473 1.4291386e-38
0.29288542 0.29506764 1.473 1.5213341e-38
0.35492286 0.29109287 1.473 1.6135321e-38
0.36053428 0.29039145 1.473 1.668741e-38
0.28478 0.30301714 1.473 1.2354947e-38
0.29600286 0.30161428 1.473 1.4385402e-38
0.37851524 -0.19067144 1.483 2.1293918e-38
0.38584384 -0.19080001 1.4840001 1.3823968e-38
0.37801853 -0.18467103 1.4834287 1.7885564e-38
0.38532379 -0.18489714 1.482 1.4100543e-38
0.37801853 -0.17700301 1.4834287 1.8532396e-38
0.38623095 -0.17542908 1.4855001 1.5947689e-38
0.39485145 -0.17124382 1.4860001 1.5213724e-38
0.40475813 -0.1712438 1.4860001 1.6044565e-38
0.41324955 -0.1712438 1.4860001 1.7429277e-38
0.37503812 -0.16416763 1.4860001 1.5028993e-38
0.38494477 -0.16558288 1.4860001 1.4844944e-38
0.39485145 -0.16558287 1.4860001 1.4659119e-38
0.40475807 -0.16558288 1.4860001 1.4937141e-38
0.41277784 -0.16463938 1.4860001 1.5307374e-38
0.36937714 -0.15709144 1.4860001 1.4566206e-38
0.37532118 -0.15652533 1.4860001 1.4474711e-38
0.38485047 -0.15595926 1.4860002 1.4106999e-38
0.39485142 -0.1556762 1.4860001 1.3738224e-38
0.40414023 -0.15544046 1.48375 1.4198128e-38
0.41111112 -0.15833651 1.48 1.4660588e-38
0.39673847 -0.14671302 1.4860001 1.4566549e-38
0.40410286 -0.14538836 1.4853333 1.5764004e-38
0.39768192 -0.13161714 1.4860001 1.7978525e-38
0.40447506 -0.13331543 1.4860001 1.7980321e-38
0.39646891 -0.12514749 1.4860002 1.8439855e-38
0.40336353 -0.12467283 1.4836924 1.8533131e-38
0.40515304 -0.11588952 1.4840001 1.8533129e-38
0.41249359 -0.11422786 1.4807501 1.9086663e-38
0.4071168 -0.10425588 1.4860001 1.7703729e-38
0.41523096 -0.10445701 1.4855001 1.8257267e-38
0.4211162 -0.10492953 1.4848001 1.945507e-38
0.15645714 -0.091619052 1.48 5.6387437e-39
0.16209523 -0.093028575 1.48 8.1269313e-39
0.39541754 -0.093122669 1.4860001 1.3284836e-38
0.40514413 -0.094563641 1.4860001 1.4386851e-38
0.41466478 -0.094820954 1.4860001 1.6966161e-38
0.42117149 -0.094691426 1.4840001 1.7795915e-38
0.15786666 -0.084571436 1.48 4.9876234e-39
0.16350475 -0.084571436 1.48 1.0713786e-38
0.39606455 -0.086329535 1.4860002 1.1516901e-38
0.40475807 -0.084914297 1.4860001 1.0238032e-38
0.41466475 -0.084914289 1.4860001 1.1529866e-38
0.42174098 -0.084914289 1.4860001 1.3648228e-38
0.15786666 -0.074704766 1.48 3.4159705e-39
0.16350475 -0.074704766 1.48 7.3065538e-39
0.40581954 -0.07606905 1.4860001 1.3178148e-38
0.41466478 -0.075007632 1.4860001 9.0355108e-39
0.42032573 -0.07359238 1.4860001 6.8282654e-39
0.15645714 -0.069066674 1.48 3.6078853e-39
0.16350476 -0.066247627 1.48 4.0596303e-39
0.38533077 -0.063428402 1.4860001 1.8070334e-38
0.39202097 -0.063685715 1.4860001 1.6689919e-38
0.40900382 -0.069346666 1.4860001 1.4197411e-38
0.41409871 -0.068214476 1.4860001 1.1618407e-38
0.2974095 -0.052152384 1.48 7.1913012e-39
0.30304766 -0.053561907 1.48 5.1619239e-39
0.384473 -0.054565296 1.4860001 1.5951998e-38
0.39343619 -0.052363813 1.4860001 1.4658385e-38
0.29614151 -0.043742586 1.4817144 3.3204986e-39
0.3013562 -0.047078095 1.48 3.6884978e-40
0.38636002 -0.049533334 1.4860001 1.5030397e-38
0.3954291 -0.04485878 1.4851429 1.3092854e-38
0.4018181 -0.04731619 1.483 1.0229419e-38
0.27880192 -0.032550476 1.4860001 6.9211883e-39
0.28529811 -0.036719047 1.483 5.0808462e-39
0.29295433 -0.038211431 1.4860001 1.0051096e-38
0.30238923 -0.034437463 1.4860001 1.9918592e-38
0.38919052 -0.035380956 1.4860001 1.4014078e-38
0.39243302 -0.037216511 1.4840001 1.3183621e-38
0.26606476 -0.025474286 1.4860001 7.4750347e-39
0.27502796 -0.02877651 1.4860001 5.2616725e-39
0.29861525 -0.029720001 1.4860001 1.576836e-38
0.30144572 -0.025474286 1.4860001 1.8165796e-38
0.26317558 -0.015062539 1.4830002 1.7610062e-38
0.27516276 -0.013950204 1.4860002 2.047066e-38
0.2844629 -0.015567617 1.4860001 1.9360703e-38
0.29398355 -0.015310301 1.4860001 1.927068e-38
0.30463001 -0.014506189 1.4860001 1.8624961e-38
0.26639998 -0.0098666679 1.48 2.0928763e-38
0.27485716 -0.0084571438 1.48 2.0929135e-38
0.28472379 -0.0070476192 1.4799999 2.0744021e-38
0.29443151 -0.0059726005 1.4813846 2.0560347e-38
0.30515534 -0.0056541665 1.483375 1.9545471e-38
0.31465465 -0.0033022221 1.4860001 1.6502653e-38
0.32125905 -0.0014152381 1.4860001 1.4475761e-38
0.36937714 -0.0042457143 1.4860001 4.982234e-39
0.29670477 0.0035238094 1.48 2.0560351e-38
0.30461359 0.0056395247 1.4807497 1.9452921e-38
0.31563973 0.0059752385 1.4841537 1.5302681e-38
0.3256126 0.0053725713 1.4852 1.4845308e-38
0.33470386 0.0070761908 1.4860001 1.2788209e-38
0.30586669 0.015504763 1.48 1.834586e-38
0.31581125 0.015274459 1.4821818 1.2538255e-38
0.32543218 0.015807809 1.4818 1.2519516e-38
0.33511177 0.01555619 1.4846666 1.1766081e-38
0.34354904 0.015921427 1.4860001 1.1953708e-38
0.30680481 0.025406286 1.4818 1.6124139e-38
0.3155981 0.024059048 1.4860001 1.225879e-38
0.32503304 0.02429492 1.4860001 1.1777986e-38
0.33597761 0.024908191 1.4860001 1.2416497e-38
0.34364554 0.025088314 1.4860001 1.1690827e-38
0.30622542 0.034391746 1.4840001 1.4446616e-38
0.32408953 0.033965714 1.4860001 1.223859e-38
0.33682668 0.035380956 1.4860001 6.9125114e-39
0.34143287 0.034640476 1.4845001 6.6377112e-39
0.30661297 0.04493143 1.4836 9.3895321e-39
0.33682668 0.041041907 1.4860001 4.1495264e-39
0.17478096 0.077523813 1.48 1.3551694e-38
0.17732571 0.081735626 1.4848001 1.3276175e-38
0.18430607 0.0852421 1.4818 1.3092133e-38
0.18655811 0.09469524 1.4840001 1.3183975e-38
0.19028573 0.094438098 1.48 1.2537529e-38
0.18766057 0.10387849 1.4860001 1.336765e-38
0.19233651 0.10487111 1.4813333 1.2354226e-38
0.19378494 0.11544901 1.4832728 1.3183253e-38
0.18784666 0.12711143 1.483 1.5304833e-38
0.19292249 0.12357442 1.4817144 1.3919378e-38
0.26921904 0.12826668 1.48 1.9363965e-38
0.27542099 0.12713906 1.48 1.9731311e-38
0.28049523 0.12685715 1.48 1.9174888e-38
0.18464762 0.13672382 1.48 1.493895e-38
0.27491185 0.13463257 1.4818 1.6683471e-38
0.28257591 0.13256064 1.4860001 1.8075017e-38
0.17724922 0.14621873 1.4809999 1.3000671e-38
0.18253332 0.14588571 1.48 1.1340431e-38
0.27597147 0.14293906 1.4860001 1.4199223e-38
0.17578749 0.1550049 1.4834286 1.3920091e-38
0.18253332 0.15434286 1.48 5.7071453e-39
0.21706668 0.15927619 1.48 1.6670912e-39
0.26921904 0.15786666 1.48 9.4140576e-39
0.27277336 0.15405715 1.4840001 1.3558829e-38
0.16679364 0.16679364 1.48 1.3550252e-38
0.17433691 0.16481261 1.48225 1.2726235e-38
0.21706668 0.16491428 1.48 1.0330584e-38
0.22242287 0.1654781 1.48 1.3094651e-38
0.26592037 0.16587923 1.4836 1.1149225e-38
0.27031049 0.16558287 1.4860001 1.1066729e-38
0.17055239 0.17055239 1.48 1.4202442e-38
0.21753651 0.17149207 1.48 1.4016985e-38
0.22330885 0.17377417 1.4800001 1.401769e-38
0.26479051 0.1757722 1.4836 9.9542708e-39
0.27314097 0.17690478 1.4860001 1.3190102e-38
0.22975238 0.18323809 1.48 1.6959597e-38
0.23482667 0.18521143 1.48 8.281765e-39
0.2459619 0.1867619 1.48 6.7288432e-39
0.25552654 0.18545309 1.4800001 9.2213552e-39
0.26405844 0.18497777 1.4826666 1.0511023e-38
0.27455622 0.18539619 1.4860001 1.4295734e-38
0.28446287 0.18681145 1.4860001 1.6227494e-38
0.29376507 0.18562625 1.4853333 9.4961723e-39
0.30365908 0.18360953 1.483 1.7340727e-38
0.33781585 0.18370794 1.48 2.3325853e-38
0.34574953 0.18488629 1.4842001 2.2772312e-38
0.35239428 0.18539619 1.4860001 2.0742208e-38
0.25842249 0.19445372 1.4860001 9.8670792e-39
0.26499048 0.19451427 1.4799998 1.1617367e-38
0.27513474 0.19471096 1.4814999 1.4016273e-38
0.284612 0.1918245 1.4825715 1.6324404e-38
0.29177144 0.19028571 1.48 1.5685116e-38
0.34674287 0.19028571 1.48 2.3417689e-38
0.35379046 0.19169524 1.48 2.3141452e-38
0.25898859 0.20520954 1.4860001 1.1063818e-38
0.26534382 0.20465812 1.4819999 1.2355288e-38
0.2720381 0.20438096 1.48 1.3276536e-38
0.25898859 0.2151162 1.4860001 1.1517268e-38
0.26545516 0.21462728 1.4826249 1.2446413e-38
0.2720381 0.21001905 1.48 1.3277257e-38
0.25898859 0.22219238 1.4860001 4.6277924e-39
0.26588941 0.22503808 1.4832308 1.309286e-38
0.2720381 0.22975238 1.48 1.4471815e-38
0.26556346 0.23502173 1.4848 1.4292492e-38
0.2720381 0.23539048 1.48 1.5396653e-38
0.14659047 0.24807619 1.48 1.3548086e-38
0.15081905 0.2494857 1.48 1.0606841e-38
0.25898859 0.24766669 1.4860001 1.1987574e-38
0.26605552 0.24496573 1.484154 1.3092498e-38
0.27405173 0.24626395 1.4800001 1.3276891e-38
0.38761905 0.24807619 1.48 1.5673261e-38
0.39243683 0.24639367 1.4840001 1.6133158e-38
0.14659047 0.25230476 1.48 1.3457329e-38
0.25641543 0.25512883 1.4860001 1.299598e-38
0.26534745 0.25461221 1.4836 1.2079437e-38
0.27274287 0.25512382 1.48 1.2354582e-38
0.38761905 0.25230476 1.48 1.5026449e-38
0.39202097 0.25191239 1.4860001 1.5582515e-38
0.2571016 0.26370603 1.4860001 1.1800306e-38
0.26564193 0.26434433 1.4818461 1.1342223e-38
0.2720381 0.26499048 1.48 1.1986145e-38
0.25898859 0.27172571 1.4860001 1.0419531e-38
0.26534745 0.27439353 1.4836 1.0511019e-38
0.27344763 0.27485716 1.48 1.1248946e-38
0.25898859 0.28446287 1.4860001 9.035878e-39
0.26611102 0.28349173 1.4851429 9.405378e-39
0.27433228 0.28486457 1.4827273 9.5894231e-39
0.28275046 0.28782475 1.48 1.0141878e-38
0.35886475 0.28556952 1.48 1.4475766e-38
0.36477035 0.28544891 1.4813334 1.5303744e-38
0.26748002 0.29012382 1.4860001 8.204681e-39
0.27455619 0.29436955 1.4860002 1.0141863e-38
0.28356698 0.29485714 1.4813333 1.3093198e-38
0.28237459 0.30210796 1.48 1.1895041e-38
0.37831905 -0.19272858 1.4990001 2.2958504e-38
0.38410217 -0.19489881 1.4937501 1.8895069e-38
0.39449877 -0.19463208 1.4990001 1.3185068e-38
0.37505859 -0.18468016 1.4955001 1.7884898e-38
0.39517114 -0.18406098 1.4943335 1.5125136e-38
0.36832571 -0.17274192 1.4990001 1.7239201e-38
0.37480089 -0.17473894 1.4941002 1.7794852e-38
0.38223621 -0.17193525 1.4920001 1.6228601e-38
0.39587736 -0.17591392 1.4920001 1.521517e-38
0.3668437 -0.1650763 1.4977275 1.4936433e-38
0.37330455 -0.16665745 1.4920001 1.5213385e-38
0.41349715 -0.16625144 1.4920001 1.4476533e-38
0.36682335 -0.15578404 1.4972501 1.4198142e-38
0.37300003 -0.15275238 1.4920001 1.4196695e-38
0.38792002 -0.15204191 1.4920001 1.3922255e-38
0.36861125 -0.14761582 1.4990001 1.3830428e-38
0.37552348 -0.14572696 1.4960004 1.3920823e-38
0.3846485 -0.14467354 1.4935004 1.4015176e-38
0.39425966 -0.14439063 1.4920003 1.5211926e-38
0.40426096 -0.1435162 1.4920001 1.6597364e-38
0.41065526 -0.14067429 1.4920001 1.899587e-38
0.37689143 -0.13847904 1.4990001 1.4381086e-38
0.38584653 -0.13562381 1.4990002 1.6227158e-38
0.39530516 -0.13547914 1.4945457 1.70598e-38
0.40355051 -0.13641143 1.4920001 1.7888128e-38
0.37831905 -0.12134763 1.4990001 1.2919291e-38
0.38511589 -0.12552008 1.4976878 1.6689943e-38
0.39265651 -0.12457017 1.4920002 1.7244557e-38
0.37831905 -0.11278191 1.4990001 1.0707677e-38
0.38485271 -0.11545938 1.4966669 1.6414796e-38
0.39502478 -0.11509716 1.4920003 1.797997e-38
0.40355051 -0.11225525 1.4920001 1.8440571e-38
0.38550004 -0.10548198 1.498067 1.3928771e-38
0.39502478 -0.10515048 1.4920003 1.7149124e-38
0.40334752 -0.10575947 1.4920001 1.7610456e-38
0.41349715 -0.10657144 1.4920001 1.8073593e-38
0.38783655 -0.096602231 1.4990001 7.0209285e-39
0.39360386 -0.096421771 1.4920001 1.3834037e-38
0.40212953 -0.098045722 1.4920001 1.5492476e-38
0.38974002 -0.08565715 1.4990001 1.8255064e-38
0.39337969 -0.084239379 1.4935557 1.7698259e-38
0.37787405 -0.073437378 1.4972501 2.1206444e-38
0.3858504 -0.0748225 1.4963751 2.074547e-38
0.39517757 -0.075341031 1.4925836 1.8900097e-38
0.40426099 -0.073179051 1.4920001 1.6683448e-38
0.42344385 -0.078152388 1.4920001 6.277635e-39
0.36861125 -0.064813904 1.4990001 2.0930214e-38
0.37600482 -0.065517142 1.4955003 2.0377399e-38
0.38436764 -0.068916194 1.4920001 1.9730602e-38
0.39592904 -0.065492995 1.4920002 1.6505539e-38
0.40541112 -0.065831207 1.4952312 1.5397396e-38
0.41179204 -0.063374482 1.4920001 1.3463048e-38
0.34976667 -0.055677146 1.4990001 1.7704101e-38
0.35476333 -0.053535715 1.4990001 1.9085946e-38
0.36604151 -0.0551061 1.4990002 1.9823512e-38
0.37571368 -0.055506032 1.4943336 1.8255454e-38
0.38223621 -0.058259051 1.4920001 1.7610804e-38
0.39549842 -0.056364443 1.4920002 1.512225e-38
0.405655 -0.055565719 1.4960001 1.3645666e-38
0.41258192 -0.058532383 1.4990001 1.2902297e-38
0.34976667 -0.041400954 1.4990001 1.8347304e-38
0.35673609 -0.044807907 1.4983002 1.8256544e-38
0.36529735 -0.045914229 1.4971337 1.7795568e-38
0.37535229 -0.045497142 1.4928753 1.6319347e-38
0.38479391 -0.044617906 1.4920002 1.4661258e-38
0.39076194 -0.044049527 1.4920001 1.4015162e-38
0.4063924 -0.049733337 1.4920001 9.7770388e-39
0.28666025 -0.033430714 1.4937501 9.6855466e-39
0.29514438 -0.033921774 1.4930001 1.2635127e-38
0.3047905 -0.035613813 1.4955001 2.0284451e-38
0.34976667 -0.0371181 1.4990001 1.9363256e-38
0.3564831 -0.035648815 1.4972503 1.8531323e-38
0.36537516 -0.035543814 1.4927779 1.5952728e-38
0.37527761 -0.035536587 1.4925836 1.4752022e-38
0.38527739 -0.035540849 1.4927779 1.401373e-38
0.26839238 -0.021414286 1.4990001 1.4010483e-38
0.27586839 -0.024788572 1.4962002 9.8677995e-39
0.28527138 -0.025210684 1.4945004 1.2077265e-38
0.29527396 -0.025292955 1.4920005 1.5581085e-38
0.30764908 -0.025637144 1.4955001 2.0104416e-38
0.34976667 -0.024269527 1.4990001 1.853025e-38
0.35578671 -0.026015826 1.4984618 1.6873962e-38
0.36552843 -0.025392951 1.498067 1.5030407e-38
0.37600648 -0.025638813 1.4955003 1.4105577e-38
0.38613424 -0.025648814 1.4960836 1.1713521e-38
0.39076191 -0.028419049 1.4920001 1.0144734e-38
0.26761273 -0.016577778 1.4920001 1.7237358e-38
0.27481219 -0.017904002 1.4920001 1.7885221e-38
0.29982096 -0.018472383 1.4920001 1.9090246e-38
0.30692571 -0.018472383 1.4920001 1.853206e-38
0.31357431 -0.01470762 1.4943335 1.8071435e-38
0.33691812 -0.012848573 1.4990001 1.8624226e-38
0.34605488 -0.015132762 1.4990002 1.6320071e-38
0.35512024 -0.016060716 1.4990001 1.5212278e-38
0.36604154 -0.016274858 1.4990002 1.419741e-38
0.37524298 -0.016053215 1.4981251 1.3276536e-38
0.38362166 -0.016519593 1.4990001 7.0101399e-39
0.31773812 -0.0076824762 1.4934001 1.6227877e-38
0.32610887 -0.0060949787 1.4964548 1.5487801e-38
0.33520567 -0.005375898 1.4957695 1.853205e-38
0.34477004 -0.0064242864 1.4990003 1.8439846e-38
0.35262191 -0.0099933334 1.4990001 1.4287819e-38
0.36668679 -0.0060943724 1.4970912 1.1434063e-38
0.37298036 -0.0090304762 1.4966668 1.0052935e-38
0.33818668 0.0028419052 1.4920001 1.5011355e-38
0.34617972 0.0062768571 1.4983002 1.16743e-38
0.36689809 0.0014276191 1.4990001 3.3273846e-39
0.34813336 0.012788572 1.4920001 1.2135929e-38
0.35152417 0.015650477 1.4943335 1.2047741e-38
0.31687242 0.029840004 1.4920001 1.2991987e-38
0.32539812 0.029840002 1.4920001 1.1961295e-38
0.33250287 0.028419049 1.4920001 1.205025e-38
0.31547189 0.035582334 1.4943335 1.2065349e-38
0.3244684 0.036193866 1.4935557 1.0035259e-38
0.33302289 0.035583816 1.4943335 8.4704821e-39
0.30834666 0.046891432 1.4920001 1.0407631e-38
0.31495023 0.045396455 1.4939094 4.9681173e-39
0.32484287 0.044982452 1.4960004 2.1215897e-39
0.33377737 0.043685146 1.4990001 3.5960009e-39
0.31687242 0.052575242 1.4920001 9.2124444e-40
0.3225562 0.052575238 1.4920001 2.3027538e-39
0.17467836 0.085558817 1.4972501 1.3368724e-38
0.18046096 0.088099055 1.4920001 1.3461637e-38
0.18280406 0.094601668 1.4937501 1.3647463e-38
0.18488939 0.10597376 1.4950001 1.4384311e-38
0.18785684 0.11527493 1.4943335 1.4568342e-38
0.18803939 0.12172826 1.4920001 1.5121511e-38
0.28617984 0.13669564 1.4920001 1.8162549e-38
0.2919786 0.13673475 1.4955001 1.8439852e-38
0.27921715 0.14493714 1.4920001 1.3834395e-38
0.2850011 0.14482084 1.4981251 1.5675065e-38
0.29623669 0.14645223 1.4978335 1.7703369e-38
0.30122763 0.1499 1.4990001 1.6873964e-38
0.17193525 0.15772572 1.4920001 1.558358e-38
0.27708575 0.15488382 1.4920001 1.3455142e-38
0.2847307 0.15529324 1.4990002 7.8323434e-39
0.2969448 0.15418287 1.4990001 1.7521145e-38
0.30122763 0.15418287 1.4990001 1.9081976e-38
0.16949001 0.16236524 1.4955001 1.4382876e-38
0.17193525 0.16198859 1.4920001 1.4474343e-38
0.27631313 0.16522217 1.4955001 1.2446425e-38
0.28493518 0.16648947 1.4984169 8.6649683e-39
0.27803305 0.17382985 1.4920001 1.6321868e-38
0.28605664 0.17504753 1.4943335 1.2810868e-38
0.29303408 0.17610262 1.4972501 5.7140229e-39
0.23445717 0.18898669 1.4920001 1.6403163e-38
0.28561142 0.18330288 1.4920001 1.4194875e-38
0.29342669 0.18117145 1.4920001 3.5856817e-39
0.30443549 0.18209691 1.4937501 1.0616569e-38
0.24840572 0.19272858 1.4990001 5.0707779e-39
0.25443941 0.19537155 1.4946251 7.6569106e-39
0.2563681 0.20509715 1.4955001 1.0052175e-38
0.256533 0.21496649 1.4948001 1.604197e-38
0.25704509 0.22426543 1.4966668 6.7389102e-39
0.26003429 0.2273524 1.4920001 1.1800306e-38
0.25768521 0.23555715 1.4990001 1.3916881e-38
0.26003429 0.23445717 1.4920001 1.3924425e-38
0.25642461 0.24664478 1.4970001 1.4103028e-38
0.26003429 0.24298286 1.4920001 1.2632235e-38
0.25435048 0.25150859 1.4920001 1.4659432e-38
0.25378209 0.26628646 1.4920001 1.4380332e-38
0.25677696 0.27445009 1.4962001 1.1431162e-38
0.26003429 0.2785067 1.4920001 1.0047163e-38
0.25782797 0.28466725 1.4990001 8.9440481e-39
0.26230782 0.28617984 1.4920001 9.1277135e-39
0.25839904 0.29837239 1.4990001 9.1280722e-39
0.2644065 0.29523021 1.4920003 9.1277037e-39
0.27140191 0.29982096 1.4920001 9.7806499e-39
0.27234921 0.30361021 1.4920001 1.0236946e-38
0.36478668 -0.23187619 1.506 1.5673968e-38
0.38725713 -0.23522286 1.506 1.6965071e-38
0.39155999 -0.23092 1.506 1.7431828e-38
0.3649233 -0.22477308 1.506 1.6692101e-38
0.37434858 -0.22403546 1.506 1.6689879e-38
0.38582289 -0.22446576 1.506 1.7148037e-38
0.39299428 -0.22661716 1.506 1.6318632e-38
0.36622095 -0.21753334 1.506 1.6687059e-38
0.37291431 -0.21657714 1.506 1.9271046e-38
0.38725716 -0.2022343 1.506 1.9727327e-38
0.39442858 -0.20223431 1.506 1.4649778e-38
0.40112191 -0.20414667 1.506 1.3827981e-38
0.37721714 -0.19219428 1.506 2.0832631e-38
0.38486668 -0.19840953 1.506 2.1020941e-38
0.39442858 -0.19936571 1.506 1.3550614e-38
0.40016574 -0.19362858 1.506 1.5768355e-38
0.36861145 -0.1821543 1.506 1.9450037e-38
0.3733924 -0.18502288 1.506 1.7147678e-38
0.40532914 -0.18387544 1.506 1.8443104e-38
0.41164002 -0.18358858 1.506 2.0931659e-38
0.36574286 -0.17498285 1.506 1.7702322e-38
0.37148002 -0.17785142 1.506 1.8809733e-38
0.40647659 -0.17813829 1.506 1.6691023e-38
0.41259623 -0.17737333 1.506 1.7704819e-38
0.36144003 -0.16494288 1.506 1.4474375e-38
0.35713714 -0.15490286 1.506 6.4677799e-39
0.3623006 -0.15432915 1.5060002 1.1439843e-38
0.35713714 -0.14486288 1.506 2.5044595e-39
0.36391741 -0.14460209 1.5060002 5.1817271e-39
0.37148002 -0.1419943 1.506 1.4196696e-38
0.35522479 -0.13816953 1.506 1.8590873e-39
0.36574289 -0.13748653 1.506 2.2268118e-39
0.37408781 -0.13443169 1.5060002 9.5073434e-39
0.38080287 -0.13410571 1.506 1.5304123e-38
0.37434855 -0.12478287 1.5060002 8.9559829e-39
0.38008571 -0.12621714 1.506 1.3654688e-38
0.37434858 -0.11474286 1.5060003 7.1149542e-39
0.38008571 -0.11522096 1.506 1.1353043e-38
0.36861145 -0.10757143 1.506 6.2837586e-39
0.37470713 -0.10506143 1.506 5.0859427e-39
0.38080287 -0.10542 1.506 9.4158723e-39
0.38474715 -0.095021434 1.506 6.5538421e-39
0.38869143 -0.08462286 1.506 2.0562123e-38
0.36610144 -0.072790004 1.506 1.3743642e-38
0.37377486 -0.073722288 1.506 2.0471396e-38
0.38582286 -0.078885719 1.506 2.1390475e-38
0.35713714 -0.061674289 1.506 1.9729872e-38
0.36344802 -0.064256005 1.5060002 1.9825658e-38
0.34661907 -0.052590482 1.506 1.7063024e-38
0.35484231 -0.054789718 1.506 1.8902991e-38
0.36215717 -0.058088571 1.506 2.0287001e-38
0.40877146 -0.055937145 1.506 1.4107371e-38
0.41307431 -0.055937145 1.506 1.3268912e-38
0.34853142 -0.04446286 1.506 1.7979241e-38
0.35283428 -0.045897145 1.506 1.7888839e-38
0.3026343 -0.035857145 1.506 1.5589017e-38
0.34673858 -0.033347145 1.506 2.0560709e-38
0.35139999 -0.031554285 1.506 2.0838735e-38
0.31410855 -0.022948571 1.506 2.1025288e-38
0.3392086 -0.023665713 1.506 1.9558067e-38
0.34566289 -0.024382856 1.5060002 2.1480864e-38
0.39442858 -0.024382858 1.506 4.9743279e-39
0.31793335 -0.015777145 1.506 1.8439133e-38
0.32630002 -0.01219143 1.506 1.714878e-38
0.33562285 -0.015777143 1.506 1.9828184e-38
0.34422857 -0.018645715 1.506 1.8994102e-38
0.35713714 -0.01004 1.506 1.419489e-38
0.3623006 -0.011761144 1.506 1.4196689e-38
0.37721714 -0.012908572 1.506 1.2269918e-38
0.35426855 -0.0043028579 1.5060002 1.7422445e-38
0.36205471 -0.0038930615 1.506 1.3185767e-38
0.35462716 0.0039442857 1.506 1.2708254e-38
0.36323288 0.0035857144 1.506 9.221728e-39
0.35642004 0.012191428 1.506 1.2519852e-38
0.31984574 0.04733143 1.506 3.6879093e-40
0.17641714 0.08749143 1.506 1.3553115e-38
0.17928571 0.093228579 1.506 1.3647824e-38
0.1821543 0.097531423 1.506 1.3924407e-38
0.1821543 0.10183429 1.506 1.4199922e-38
0.18502286 0.11474286 1.506 1.4567644e-38
0.28829142 0.14773144 1.506 1.5041571e-38
0.29402858 0.14534096 1.506 1.7979944e-38
0.28829142 0.15442477 1.506 7.7401309e-39
0.29438716 0.15597858 1.506 1.1714655e-38
0.3026343 0.15920572 1.506 2.074794e-38
0.28733525 0.16398668 1.506 4.9684747e-39
0.29546285 0.16422573 1.506 1.1075032e-38
0.29737526 0.17450476 1.506 8.1276418e-39
0.30406857 0.17928571 1.506 1.0231979e-38
