# .PCD v0.7 - Point Cloud Data file format
VERSION 0.7
FIELDS x y z rgb
SIZE 4 4 4 4
TYPE F F F F
COUNT 1 1 1 1
WIDTH 1026
HEIGHT 1
VIEWPOINT 0 0 0 1 0 0 0
POINTS 1026
DATA ascii
-0.35476947 0.25484493 1.2746925 1.7677363e-38
-0.22742763 0.25783241 1.2770001 6.7303398e-39
-0.35264194 0.24575366 1.2753335 1.6855304e-38
-0.34768003 0.24228573 1.2720001 1.8448131e-38
-0.35169029 0.23648305 1.276 1.3875861e-38
-0.3464908 0.23393567 1.2727145 1.6868191e-38
-0.3443197 0.22515969 1.2745003 1.8067457e-38
-0.28215623 0.22013049 1.2770001 1.6127024e-38
-0.27428174 0.22443378 1.2738184 1.5299064e-38
-0.26669073 0.22781074 1.27575 1.4932409e-38
-0.34263119 0.21748263 1.27575 1.7423891e-38
-0.33669147 0.21371534 1.2742224 1.6868167e-38
-0.29252452 0.21241547 1.2745001 1.5164022e-38
-0.28677991 0.21579133 1.2753335 1.5743871e-38
-0.33342493 0.20742589 1.2761667 1.6031549e-38
-0.32530096 0.20512904 1.2745003 1.5264439e-38
-0.31498513 0.20325692 1.2751251 1.5351965e-38
-0.30446273 0.20492795 1.2745001 1.562927e-38
-0.29637811 0.20769282 1.2736669 1.5351617e-38
-0.3152774 0.090946436 1.2732501 2.2774781e-38
-0.33202001 0.081484765 1.2770001 1.6688143e-38
-0.3250832 0.083639145 1.2765001 2.1945054e-38
-0.31504792 0.084821723 1.2723125 2.3325854e-38
-0.30588049 0.08700572 1.2732502 2.341769e-38
-0.29374191 0.086180478 1.2745001 2.341769e-38
-0.28499401 0.086349532 1.2770002 2.3417679e-38
-0.27639392 0.082748957 1.274 2.3141096e-38
-0.33331212 0.075260475 1.2745003 2.0648947e-38
-0.32506669 0.077127621 1.2720002 2.3141825e-38
-0.31860572 0.078742862 1.2720001 2.341769e-38
-0.27223685 0.07564678 1.2742225 2.2771962e-38
-0.26780516 0.073701151 1.2770001 2.2218429e-38
-0.27014858 0.067840002 1.2720001 2.2309549e-38
-0.26505896 0.066083148 1.2755002 2.1388311e-38
-0.26419124 0.055174101 1.276 2.0281246e-38
-0.26404694 0.045775481 1.2732502 1.9174896e-38
-0.26556358 0.033949763 1.2732501 1.889651e-38
-0.27014858 0.020594286 1.2720001 1.8803583e-38
-0.26721114 0.024292065 1.2753334 1.8436962e-38
-0.27391508 0.014338667 1.276 1.8157138e-38
-0.26877812 0.018242858 1.2770001 1.8712469e-38
-0.35321915 0.0052511115 1.2725558 1.0508879e-38
-0.34560332 0.002942041 1.2720002 1.5209402e-38
-0.33314288 0.0012114288 1.2720001 1.594624e-38
-0.27268451 0.0064175515 1.274143 1.797563e-38
-0.26638213 0.0041869837 1.275889 1.8345843e-38
-0.34373587 -0.0012146033 1.2753334 1.6871067e-38
-0.33743668 -0.0012138096 1.2745001 1.6224625e-38
-0.32449096 -0.0020246035 1.2745001 1.2537867e-38
-0.31594497 -0.0046081911 1.2730001 1.1336472e-38
-0.27232915 -0.0055725719 1.2720002 1.6591622e-38
-0.26744112 -0.0044522225 1.2745001 1.8252933e-38
-0.30039907 -0.015810478 1.2770001 1.4099792e-38
-0.29452288 -0.013352247 1.274143 1.2075823e-38
-0.28486881 -0.01400832 1.2750003 1.3733178e-38
-0.27488744 -0.0139861 1.2730002 1.6499426e-38
-0.26772574 -0.010902858 1.2720001 1.8898308e-38
-0.29188573 -0.02432381 1.2770001 1.8526626e-38
-0.28458858 -0.02432381 1.2770002 1.8253283e-38
-0.27661392 -0.022102287 1.2750002 1.944788e-38
-0.29188573 -0.031620953 1.2770001 1.9183522e-38
-0.28702095 -0.030404763 1.2770001 2.0929074e-38
-0.38437748 0.37580538 1.2853335 1.2080151e-38
-0.3821581 0.3699486 1.2820001 1.4203865e-38
-0.33547643 0.31103358 1.2832501 9.4036151e-39
-0.32498685 0.31154367 1.2828335 7.1902306e-39
-0.31378227 0.31188193 1.2831112 7.2827653e-39
-0.30460766 0.31286338 1.2845 7.929557e-39
-0.29608095 0.31347954 1.2820001 7.556799e-39
-0.33236209 0.30418491 1.2861669 1.0686399e-38
-0.32582968 0.30500212 1.2861668 8.8457288e-39
-0.31493267 0.30544221 1.2837647 8.75245e-39
-0.3045553 0.30455959 1.2842728 9.5789848e-39
-0.29669142 0.30605209 1.2820001 8.1017318e-39
-0.34376144 0.29115096 1.2845001 2.1755995e-38
-0.33416909 0.29421908 1.2842222 1.944713e-38
-0.32477334 0.29608095 1.2820001 1.6308512e-38
-0.31573829 0.29864499 1.2820001 1.4283801e-38
-0.30768001 0.29913336 1.2820001 1.4933449e-38
-0.36158571 0.28068858 1.2870001 1.9611087e-38
-0.35459197 0.28386179 1.2853334 2.1567319e-38
-0.3464793 0.28720361 1.2832501 2.2495376e-38
-0.36445031 0.27470034 1.2860909 1.7732548e-38
-0.3557235 0.276191 1.2825555 1.8011345e-38
-0.36435473 0.26505122 1.28325 1.7368394e-38
-0.2283181 0.26494667 1.2820001 1.3739268e-38
-0.3646754 0.25424477 1.2839231 1.713145e-38
-0.36356887 0.24482542 1.2853333 1.3889862e-38
-0.35773906 0.24419048 1.2820001 1.2869264e-38
-0.3634924 0.23601811 1.2870001 1.4257548e-38
-0.35626614 0.23411591 1.2825555 1.3047113e-38
-0.36158571 0.22920857 1.2870001 1.5174105e-38
-0.3546848 0.22503763 1.2841874 1.5285389e-38
-0.34797144 0.22099239 1.2820001 1.8158946e-38
-0.27520269 0.22148077 1.2820001 1.5484532e-38
-0.26549399 0.22487707 1.2846667 1.539197e-38
-0.25762096 0.2283181 1.2820001 1.5840667e-38
-0.35397935 0.21605682 1.2853334 1.7146591e-38
-0.34528539 0.21366668 1.2819999 1.6871442e-38
-0.28393927 0.21393801 1.2820001 1.5943006e-38
-0.27612299 0.21593347 1.2852354 1.55771e-38
-0.35300574 0.20959716 1.2870001 1.6317915e-38
-0.3450501 0.20594865 1.2856668 1.6133872e-38
-0.33545667 0.20298333 1.2820001 1.6132421e-38
-0.32843623 0.20145716 1.2820001 1.5663461e-38
-0.30340666 0.20206763 1.2820001 1.5626389e-38
-0.29431087 0.2040149 1.2839231 1.5538545e-38
-0.28536624 0.20685628 1.2852143 1.6126302e-38
-0.27742004 0.20878002 1.2870001 1.5946594e-38
-0.34197432 0.19979143 1.2870001 1.5671459e-38
-0.3344993 0.19653311 1.2857499 1.613207e-38
-0.32564509 0.19587232 1.2854375 1.6128442e-38
-0.3150073 0.19549903 1.2847776 1.6118342e-38
-0.3051196 0.19723152 1.285077 1.5830577e-38
-0.29784858 0.19979143 1.2870001 1.591379e-38
-0.32236287 0.18998572 1.2870001 1.6407938e-38
-0.31623429 0.18998572 1.2870001 1.6776715e-38
-0.28436571 0.091928571 1.2870001 1.9724149e-38
-0.33494794 0.083431751 1.2820001 1.6680227e-38
-0.30152571 0.089477144 1.2870001 2.341769e-38
-0.29501781 0.089361273 1.2853335 2.2315664e-38
-0.28521845 0.088954292 1.2853335 2.1666665e-38
-0.27483985 0.084818572 1.2845001 2.0745712e-38
-0.26603937 0.082425088 1.2853335 2.1755218e-38
-0.25862572 0.082122862 1.2870001 2.2683006e-38
-0.26398373 0.076368846 1.2836667 2.2034758e-38
-0.2578086 0.075177148 1.2870002 2.1388316e-38
-0.26139921 0.066528171 1.2834288 2.1479787e-38
-0.25770643 0.065882146 1.2870001 2.018833e-38
-0.26158813 0.055004288 1.2835001 1.9358207e-38
-0.25862572 0.055157147 1.2870001 1.8711397e-38
-0.26242399 0.044755429 1.2840002 1.8712117e-38
-0.2650764 0.03499829 1.2850002 1.8712477e-38
-0.26423126 0.023718702 1.2860909 1.8435527e-38
-0.27288288 0.012820001 1.2820001 1.8525913e-38
-0.26517409 0.014485466 1.2843683 1.8989431e-38
-0.25862572 0.018385714 1.2870001 2.2223813e-38
-0.26300427 0.0054418189 1.2833637 1.9634439e-38
-0.34186667 -0.0036628572 1.2820001 1.6043138e-38
-0.33474535 -0.0036741667 1.2851251 1.5852971e-38
-0.32588562 -0.0069361911 1.2847778 1.2075087e-38
-0.31500572 -0.0085466672 1.2820001 1.0961576e-38
-0.26559013 -0.0045898813 1.285125 1.9358921e-38
-0.32297572 -0.012869999 1.2870001 1.3548772e-38
-0.31592897 -0.014697263 1.28575 1.3550587e-38
-0.30576134 -0.014825853 1.2819999 1.3087447e-38
-0.29669148 -0.016570069 1.2820002 1.4284552e-38
-0.28814477 -0.018314287 1.2820001 1.6038421e-38
-0.27143869 -0.016397906 1.2850002 1.9266717e-38
-0.26738858 -0.010988572 1.2820001 1.9266373e-38
-0.32236287 -0.025740001 1.2870001 1.8438409e-38
-0.31526667 -0.024320753 1.2870002 1.7975264e-38
-0.30457669 -0.024715459 1.2827692 1.8252197e-38
-0.29791239 -0.024419047 1.2820001 1.834296e-38
-0.27620426 -0.025362143 1.2832501 1.6960748e-38
-0.32236287 -0.03064286 1.2870001 1.7893151e-38
-0.31500861 -0.034320001 1.2870001 1.7423182e-38
-0.30473733 -0.034153845 1.2836667 1.8343717e-38
-0.29602545 -0.034741648 1.2819999 1.6221381e-38
-0.28472543 -0.034882914 1.2837647 1.354913e-38
-0.27891761 -0.030583337 1.2845001 1.307562e-38
-0.33942857 0.31227428 1.296 9.0369598e-39
-0.33690551 0.30491123 1.2919999 1.1609066e-38
-0.3616457 0.29005712 1.296 2.24039e-38
-0.3529419 0.29257858 1.2934999 2.1848932e-38
-0.34459564 0.29673961 1.295 1.9817356e-38
-0.33811903 0.2987743 1.291 1.6675881e-38
-0.36417317 0.28420493 1.2918334 2.1386153e-38
-0.3565619 0.28893811 1.291 2.2219154e-38
-0.37164745 0.27460286 1.293 1.801707e-38
-0.37326714 0.26485476 1.2934999 1.6727701e-38
-0.3728573 0.25458968 1.2934999 1.5829912e-38
-0.3719801 0.244651 1.2937777 1.7612175e-38
-0.37429717 0.23636571 1.296 1.529149e-38
-0.36736882 0.23321739 1.2922499 1.6497958e-38
-0.36555535 0.22495374 1.2930834 1.7144776e-38
-0.26680666 0.22131428 1.291 1.5576727e-38
-0.36200351 0.21530923 1.2943333 1.6871091e-38
-0.35779142 0.2114781 1.291 1.6409752e-38
-0.27248383 0.21298222 1.2926667 1.5392702e-38
-0.26926571 0.21762572 1.291 1.5576726e-38
-0.3543036 0.20513536 1.2932222 1.5947689e-38
-0.3467257 0.20041238 1.291 1.5579618e-38
-0.2938562 0.20041238 1.2910001 1.6214523e-38
-0.28435469 0.20248508 1.2937779 1.6407218e-38
-0.27691072 0.20675881 1.29225 1.5946227e-38
-0.34490275 0.1962676 1.2946364 1.6131353e-38
-0.33543009 0.19121562 1.2920001 1.6407949e-38
-0.32705331 0.19057618 1.291 1.6499772e-38
-0.31106955 0.19057618 1.291 1.6591971e-38
-0.30461591 0.19290307 1.2937777 1.6591595e-38
-0.2950125 0.1971782 1.2948889 1.6408635e-38
-0.28758857 0.19872001 1.296 1.659089e-38
-0.33449143 0.18884572 1.296 1.6592348e-38
-0.3251082 0.18672515 1.295 1.6316829e-38
-0.3153666 0.18530959 1.2935002 1.6316824e-38
-0.30816001 0.18719999 1.296 1.6591974e-38
-0.29454094 0.092428565 1.294 2.1387937e-38
-0.2835536 0.095341638 1.2952858 1.8807575e-38
-0.27910191 0.092214279 1.291 1.1156726e-38
-0.25796571 0.090102859 1.296 2.3417669e-38
-0.27481523 0.087990858 1.294 1.4364486e-38
-0.26331431 0.086129799 1.2945715 1.7333825e-38
-0.25509268 0.084210038 1.295091 2.3140021e-38
-0.25475547 0.075380951 1.29225 2.0834782e-38
-0.2552838 0.063865036 1.2931429 1.8712116e-38
-0.25746572 0.054820955 1.2934999 1.8618837e-38
-0.26133049 0.044377144 1.2943333 1.8435169e-38
-0.26313606 0.03358607 1.2941248 1.8159662e-38
-0.2614038 0.027495874 1.2926667 1.7883081e-38
-0.25869763 0.023817617 1.2934999 2.138794e-38
-0.25859305 0.014260001 1.2938572 2.2866286e-38
-0.26043427 0.0061714286 1.296 2.1289331e-38
-0.25860983 0.0053279372 1.2910001 2.0649659e-38
-0.34246951 -0.0073938095 1.2934999 1.5211915e-38
-0.33724976 -0.0080169048 1.29475 1.5025379e-38
-0.26270825 -0.0036885715 1.2910001 1.9819879e-38
-0.34189713 -0.011108571 1.296 1.4565469e-38
-0.33539346 -0.014561717 1.2956666 1.4750208e-38
-0.32690486 -0.015685357 1.291625 1.5297608e-38
-0.26926571 -0.013524762 1.291 1.8073246e-38
-0.33501306 -0.024671428 1.2952857 1.143084e-38
-0.32692602 -0.024199683 1.2921112 1.6871802e-38
-0.27524573 -0.02592 1.296 1.4647218e-38
-0.3247453 -0.034622539 1.2932222 1.5671459e-38
-0.3426367 0.3128424 1.3035002 8.7582177e-39
-0.34400955 0.30625296 1.3040001 1.3082389e-38
-0.36456782 0.2938056 1.3035002 2.2218428e-38
-0.35684574 0.29613242 1.3010001 2.1572708e-38
-0.34951049 0.29975814 1.3060001 1.9637278e-38
-0.37331778 0.28588691 1.3040003 2.1941834e-38
-0.36799717 0.28869811 1.3010001 2.2124088e-38
-0.37749738 0.27574307 1.3030002 1.7470432e-38
-0.39030004 0.26143906 1.3010001 1.5116855e-38
-0.38483983 0.26558968 1.3043334 1.4177232e-38
-0.37741393 0.26540405 1.3010001 1.6544035e-38
-0.38549924 0.2554785 1.3057222 1.4172552e-38
-0.37790954 0.25524384 1.3010001 1.3688217e-38
-0.38248944 0.24537584 1.302875 1.4164965e-38
-0.37790954 0.24533145 1.3010001 1.2788922e-38
-0.38180944 0.23459992 1.3016253 1.4922003e-38
-0.37675923 0.23208086 1.303143 1.4638261e-38
-0.26244381 0.23010477 1.3060001 1.5945487e-38
-0.38184959 0.22512953 1.3060001 1.5303386e-38
-0.37593248 0.22399351 1.3045715 1.4555022e-38
-0.26502135 0.22428727 1.3040003 1.58544e-38
-0.37469447 0.21456981 1.3053334 1.4742669e-38
-0.36769325 0.21423253 1.3024287 1.6225705e-38
-0.27187288 0.21352334 1.3035002 1.5762925e-38
-0.26939002 0.21848907 1.3035002 1.5855845e-38
-0.37239662 0.20473109 1.3060001 1.3091777e-38
-0.36499861 0.20503391 1.302667 1.4383608e-38
-0.35684574 0.20196478 1.3010001 1.6039879e-38
-0.28180432 0.20110907 1.3035002 1.6131335e-38
-0.27683863 0.2060748 1.3035002 1.5946607e-38
-0.37047526 0.19700859 1.3010001 8.3019339e-39
-0.36422014 0.1956227 1.3016671 7.2867436e-39
-0.35523513 0.19436193 1.302667 1.4844578e-38
-0.3456943 0.19205241 1.3010001 1.6316831e-38
-0.3010886 0.19205239 1.3010001 1.6684528e-38
-0.29538897 0.19403486 1.3010002 1.650085e-38
-0.28641468 0.19489954 1.3035002 1.6590534e-38
-0.36180192 0.18833525 1.3010001 1.1235261e-38
-0.35572955 0.18582517 1.3060001 1.3736801e-38
-0.34495196 0.18684497 1.3042145 1.6318638e-38
-0.33509529 0.18367769 1.3031431 1.6409034e-38
-0.32537395 0.18263562 1.3010001 1.6500144e-38
-0.31224 0.18214002 1.3010001 1.631683e-38
-0.30418107 0.1848444 1.3013576 1.6868203e-38
-0.29550481 0.18513684 1.3028424 1.6777075e-38
-0.28856385 0.18657143 1.3060001 1.6867479e-38
-0.33309221 0.17587468 1.3060001 1.6034124e-38
-0.32550475 0.17517096 1.3045 1.6684171e-38
-0.31532288 0.17503572 1.3035002 1.6776366e-38
-0.30579495 0.17497043 1.3049474 1.7052594e-38
-0.29782334 0.17510076 1.3060001 1.7420658e-38
-0.32587811 0.16045144 1.3060001 1.9359632e-38
-0.31468388 0.1645221 1.3060001 1.7973472e-38
-0.30556256 0.16521938 1.306 1.7881636e-38
-0.32380509 0.15464699 1.3060001 2.083477e-38
-0.31344005 0.1536105 1.3060001 2.0465272e-38
-0.30908668 0.15361048 1.3060001 1.9913187e-38
-0.32214668 0.14801335 1.3060001 2.0096855e-38
-0.31530577 0.14739144 1.3060001 1.8158962e-38
-0.3097086 0.14676954 1.3060001 1.6874314e-38
-0.29229528 0.13060001 1.3060001 2.1295758e-38
-0.28447706 0.13273226 1.3060002 2.1665263e-38
-0.27985719 0.13433143 1.3060001 2.1665264e-38
-0.2951656 0.12409393 1.3060001 1.493932e-38
-0.28632504 0.12462974 1.3060001 2.1574132e-38
-0.29581633 0.11434983 1.3050625 1.3824677e-38
-0.28676665 0.11407752 1.3052309 2.286557e-38
-0.26244381 0.11069906 1.3060001 1.6783156e-38
-0.2558102 0.11069906 1.3060001 1.9455027e-38
-0.30224574 0.10074858 1.3060001 1.6035992e-38
-0.29539311 0.10425709 1.3031877 2.129971e-38
-0.28518426 0.10415709 1.3019377 2.2496455e-38
-0.27623883 0.10301006 1.3060001 1.1250423e-38
-0.26552209 0.10407441 1.3040001 1.7792693e-38
-0.25468385 0.10436144 1.3045001 2.1759965e-38
-0.24689621 0.10385811 1.3060001 2.1018087e-38
-0.31219622 0.093285725 1.3060001 2.3417663e-38
-0.30539143 0.094971672 1.3035001 1.9625422e-38
-0.29489335 0.09664572 1.3010001 2.0650379e-38
-0.28498095 0.097884767 1.3010001 2.1203926e-38
-0.27539626 0.094282806 1.3025627 8.9308086e-39
-0.2652854 0.094214067 1.3016254 1.4382902e-38
-0.25414893 0.094515644 1.3031055 2.2403537e-38
-0.24503049 0.097017162 1.3060002 2.0371645e-38
-0.26887333 0.087972388 1.3010001 1.2240463e-38
-0.25118083 0.085248739 1.3035002 2.1663815e-38
-0.24719906 0.081986673 1.3043336 1.9633352e-38
-0.25212848 0.074831791 1.3041251 1.9448959e-38
-0.24751811 0.077116199 1.3060001 1.8896513e-38
-0.25362691 0.064495958 1.3022501 1.8434451e-38
-0.25704342 0.054460824 1.3038573 1.8619196e-38
-0.26143906 0.040888574 1.3010001 1.8251131e-38
-0.25896114 0.045575403 1.3051668 1.8435886e-38
-0.26143906 0.035932384 1.3010001 1.8066745e-38
-0.25906059 0.034030858 1.3040003 1.852737e-38
-0.25697416 0.024830956 1.3035002 2.0742205e-38
-0.25697574 0.014894762 1.3035002 2.0456994e-38
-0.26143906 0.0012390477 1.3010001 1.9270668e-38
-0.25879526 0.00786635 1.3043336 2.137714e-38
-0.26318526 -0.003729048 1.3035002 1.8532004e-38
-0.34259671 -0.016727146 1.3010001 1.3826825e-38
-0.27135146 -0.017346669 1.3010001 1.5763663e-38
-0.34073812 -0.021063812 1.3010001 1.3089268e-38
-0.27352813 -0.025652222 1.3035002 1.4652973e-38
-0.26617524 -0.027363811 1.3060001 2.0281585e-38
-0.25995621 -0.027363811 1.3060001 2.19422e-38
-0.34585431 0.31339145 1.3110001 8.2972367e-39
-0.36528289 0.30147955 1.3135002 2.2034402e-38
-0.35463676 0.30318666 1.313143 1.8619203e-38
-0.34968004 0.30706668 1.3160001 1.4840227e-38
-0.37427366 0.29541206 1.3143334 2.2310622e-38
-0.36708003 0.2984086 1.3110001 2.258685e-38
-0.38154051 0.28271765 1.3135002 1.8896129e-38
-0.38331145 0.27468574 1.3110001 1.5087402e-38
-0.26194671 0.23312002 1.3160001 1.6031548e-38
-0.26545146 0.22461081 1.3126669 1.6130997e-38
-0.27211684 0.21377717 1.3126669 1.6315015e-38
-0.28092861 0.20102002 1.3110001 1.5671455e-38
-0.27727565 0.20514078 1.3150002 1.6131356e-38
-0.28301841 0.19445296 1.3124287 1.622283e-38
-0.27843145 0.19852288 1.3110001 1.5671459e-38
-0.35338345 0.18231791 1.3130001 1.4196332e-38
-0.34535488 0.18154229 1.3110001 1.5305918e-38
-0.29174954 0.18187526 1.3110001 1.7144417e-38
-0.28600782 0.18488212 1.3126667 1.695895e-38
-0.35720003 0.17922668 1.3160001 1.3827542e-38
-0.34323916 0.1761549 1.3141251 1.5854418e-38
-0.33693597 0.17355146 1.3110001 1.6683087e-38
-0.29381779 0.17424788 1.3128182 1.7789075e-38
-0.28901869 0.17621867 1.3160001 1.7696156e-38
-0.34216002 0.16544001 1.3160001 1.9175615e-38
-0.33509994 0.16504595 1.3128752 1.9174532e-38
-0.32427186 0.16534656 1.3110001 1.8344049e-38
-0.31339145 0.16106573 1.3110001 1.834476e-38
-0.30375963 0.16356286 1.3110001 1.8342606e-38
-0.29515007 0.16508736 1.3131877 1.8158572e-38
-0.28868449 0.16251557 1.3160002 1.8157131e-38
-0.34216005 0.15583113 1.3160002 2.0097568e-38
-0.33526006 0.15511809 1.3135002 2.0558904e-38
-0.32453257 0.15472682 1.311 2.0652543e-38
-0.31588858 0.15551652 1.311 2.0190843e-38
-0.30440173 0.15473963 1.3110001 1.9359291e-38
-0.29508072 0.15504311 1.3128752 1.8898668e-38
-0.28724122 0.15507153 1.3160001 1.8344418e-38
-0.34266135 0.14463466 1.3160001 1.9360735e-38
-0.33493978 0.14497241 1.3122501 1.9268175e-38
-0.32533908 0.14445296 1.3124287 1.7973846e-38
-0.31531706 0.14363465 1.3114545 1.7421384e-38
-0.30494192 0.14496884 1.3122501 1.6500858e-38
-0.29522416 0.1451093 1.3135002 1.7607199e-38
-0.28548861 0.14525217 1.3147501 1.7784394e-38
-0.27698669 0.14313067 1.3160001 1.8614892e-38
-0.34216002 0.13786668 1.3160001 1.6779245e-38
-0.33589336 0.13711467 1.3160001 1.6869995e-38
-0.325616 0.13861866 1.3160001 1.6962558e-38
-0.31482601 0.13651724 1.315091 1.1982573e-38
-0.30559698 0.13526507 1.3150626 1.4562963e-38
-0.29518151 0.13545635 1.3117144 2.1020964e-38
-0.28717148 0.1360943 1.3110001 2.1756375e-38
-0.27782223 0.13577779 1.3160001 2.1480497e-38
-0.30450988 0.12628235 1.3128182 9.9628818e-39
-0.28211814 0.12543367 1.3126668 1.6779975e-38
-0.30413565 0.11420421 1.3120002 1.0043889e-38
-0.28264114 0.11470554 1.3120002 1.5304071e-38
-0.27949336 0.11154667 1.3160001 1.0888033e-38
-0.26696002 0.11154667 1.3160001 1.6786388e-38
-0.25470859 0.11112286 1.3110001 2.1119251e-38
-0.31291559 0.10235557 1.3160002 1.5770866e-38
-0.30636859 0.10504191 1.3130001 1.6224643e-38
-0.28092861 0.10862572 1.3110001 1.972153e-38
-0.2753545 0.10829201 1.3130001 7.6601925e-39
-0.2453443 0.10300715 1.3110001 2.0279094e-38
-0.31511316 0.096358106 1.314 1.8806476e-38
-0.30714858 0.098637149 1.3110001 1.2449323e-38
-0.24397087 0.093393162 1.311 1.9911742e-38
-0.24496193 0.085910484 1.3115555 1.9541875e-38
-0.25096288 0.072417147 1.3110001 1.8527363e-38
-0.24686003 0.074899189 1.3138573 1.889651e-38
-0.25258139 0.064528033 1.3138573 1.8252218e-38
-0.24941336 0.068933338 1.3160001 1.8713546e-38
-0.25334439 0.054520577 1.3130001 1.8528441e-38
-0.24640536 0.055397339 1.3160001 1.8620636e-38
-0.2547245 0.044687085 1.3138573 1.8251861e-38
-0.24774227 0.048044451 1.3160002 1.8712836e-38
-0.25497255 0.035282731 1.3136667 2.0004296e-38
-0.24941336 0.036346667 1.3160001 2.0834796e-38
-0.25484368 0.02676324 1.3130001 1.9998525e-38
-0.25668931 0.015022144 1.3147502 1.7771441e-38
-0.26194671 0.0012533334 1.3160001 1.7687874e-38
-0.25804308 0.0052563814 1.3140001 1.7480111e-38
-0.26436719 -0.0054223817 1.3135002 1.7137208e-38
-0.25944 -0.0012533334 1.3160001 1.5979811e-38
-0.27197334 -0.018800002 1.3160001 1.0931853e-38
-0.26758668 -0.01598 1.3160001 1.2998872e-38
-0.2721886 -0.022474289 1.3110001 1.1976429e-38
-0.26566696 -0.022687349 1.313143 1.8807174e-38
-0.25804305 -0.026779428 1.3140001 2.1756018e-38
-0.3820143 0.32708001 1.3260001 1.8890687e-38
-0.37633145 0.32202861 1.3260001 1.5289736e-38
-0.3630715 0.32392287 1.3260001 1.40058e-38
-0.35865146 0.32455432 1.3260002 1.2258427e-38
-0.38012004 0.3157143 1.3260001 1.7790878e-38
-0.37380576 0.31571427 1.3260001 2.0192274e-38
-0.36485189 0.31561631 1.3255835 1.7695084e-38
-0.35579002 0.31542024 1.3247502 1.3084926e-38
-0.38292637 0.30462924 1.3260001 1.8717158e-38
-0.3751395 0.30610383 1.3246365 2.1296119e-38
-0.36430845 0.30679554 1.3210001 2.0926607e-38
-0.35729906 0.30823335 1.3210001 1.7788703e-38
-0.38493097 0.29532447 1.3251669 1.7979955e-38
-0.3786867 0.2981686 1.3210001 2.1761756e-38
-0.38546449 0.28594956 1.3226669 1.6690632e-38
-0.39022288 0.27656573 1.3260001 1.2805844e-38
-0.26141146 0.23236573 1.3260001 1.6132395e-38
-0.2704905 0.22016668 1.3210001 1.594734e-38
-0.26472074 0.22413421 1.324182 1.6314313e-38
-0.25509715 0.22100002 1.3260001 1.6683072e-38
-0.27218398 0.2137097 1.3251668 1.6683073e-38
-0.25509715 0.21594858 1.3260001 1.6683069e-38
-0.27431339 0.2038928 1.3238572 1.6223173e-38
-0.28118432 0.19500478 1.3210001 1.6223191e-38
-0.27598286 0.19516003 1.3260001 1.6499056e-38
-0.26898858 0.19826859 1.3260001 1.6682723e-38
-0.28217119 0.18525974 1.3215002 1.7144776e-38
-0.27782857 0.18437713 1.3260001 1.7328451e-38
-0.35543233 0.17502244 1.3241581 1.4289612e-38
-0.3487806 0.17375697 1.3240002 1.7605407e-38
-0.28450394 0.17547362 1.3230002 1.7789441e-38
-0.27681831 0.17351657 1.3260001 1.7973826e-38
-0.26898858 0.17048572 1.3260001 1.834261e-38
-0.36244005 0.16038287 1.3260001 1.4817595e-38
-0.35450208 0.16363022 1.3260001 1.8345488e-38
-0.34789383 0.16512001 1.3235002 1.8716799e-38
-0.29062003 0.16858476 1.3210001 1.7790148e-38
-0.28478667 0.16633593 1.323143 1.7605412e-38
-0.27559432 0.16485146 1.3260001 1.732954e-38
-0.35461029 0.15331088 1.3260001 2.1206789e-38
-0.34693503 0.15552238 1.3222501 1.9729868e-38
-0.28223273 0.15642318 1.3210001 1.7516085e-38
-0.27529413 0.15497448 1.3210001 1.7331334e-38
-0.36622858 0.14270286 1.3260001 1.4932829e-38
-0.35601774 0.14417437 1.3252308 1.7426068e-38
-0.34741408 0.14647825 1.3210001 2.0653629e-38
-0.28055525 0.14719716 1.3210001 1.6106934e-38
-0.27330169 0.14661375 1.3214169 1.7236963e-38
-0.26740044 0.14298682 1.3252858 1.8251849e-38
-0.36370289 0.13512573 1.3260002 1.5580334e-38
-0.35540062 0.13439146 1.3243332 1.5122625e-38
-0.34555683 0.13503557 1.3210001 1.7054025e-38
-0.3333953 0.13353784 1.3210001 1.6593407e-38
-0.32496178 0.1332579 1.3229233 1.6042404e-38
-0.3180126 0.13189296 1.3240001 9.0243915e-39
-0.27322519 0.1352455 1.3230835 1.806567e-38
-0.26898858 0.13512571 1.3260001 1.7882001e-38
-0.35360003 0.12754858 1.3260001 5.4337842e-39
-0.34498969 0.12624846 1.3230002 1.4660896e-38
-0.33504713 0.12595566 1.3225625 1.5948402e-38
-0.32919145 0.12738508 1.3243335 1.613316e-38
-0.31385857 0.12856619 1.3235002 2.2220446e-39
-0.30940002 0.12502286 1.3260001 3.2322392e-39
-0.28174797 0.12512636 1.3226669 1.0503515e-38
-0.27772495 0.12688398 1.3235002 1.1616333e-38
-0.34349716 0.11997144 1.3260001 1.5946237e-38
-0.33886668 0.11912954 1.3260001 1.5304468e-38
-0.31318858 0.11239429 1.3260001 1.3924026e-38
-0.30881667 0.1159662 1.3235002 1.114122e-38
-0.28198653 0.11768514 1.3230002 7.0800128e-39
-0.27649158 0.11444537 1.3241252 9.1273688e-39
-0.25383431 0.11492001 1.3260001 2.2764007e-38
-0.31590107 0.10687537 1.3241252 1.6227489e-38
-0.32081428 0.096873343 1.3210001 1.7798709e-38
-0.3189005 0.09831953 1.3235002 1.7248462e-38
-0.24319305 0.074537367 1.3215557 1.9172019e-38
-0.25036097 0.064162865 1.3210001 1.8436606e-38
-0.2443559 0.065499827 1.3225625 1.8712828e-38
-0.23823002 0.063021436 1.3235002 1.8621349e-38
-0.24331562 0.055104584 1.3210001 1.871247e-38
-0.23823002 0.055460952 1.3235002 1.9174163e-38
-0.25036097 0.042775244 1.3210001 1.9815599e-38
-0.24422982 0.045083623 1.3223336 2.1573779e-38
-0.23723677 0.045643274 1.3260001 2.2493567e-38
-0.25036097 0.034807306 1.3210001 2.0279447e-38
-0.24435532 0.035269227 1.3225625 2.009434e-38
-0.2361543 0.035359997 1.3260002 2.083441e-38
-0.25262555 0.02440705 1.3210001 1.7756311e-38
-0.2444708 0.02520149 1.3231876 1.8694137e-38
-0.23638391 0.025601562 1.3260002 2.2030776e-38
-0.25335413 0.015121747 1.3235002 1.6819595e-38
-0.2449943 0.015154286 1.3260001 1.8026403e-38
-0.23868001 0.016417144 1.3260001 2.0530462e-38
-0.25464344 0.0052591274 1.3247502 1.6539751e-38
-0.24510911 0.006314286 1.3260002 1.7485795e-38
-0.2621032 -0.0071292073 1.3210001 1.6387754e-38
-0.25799009 -0.0042899051 1.3240002 1.5997774e-38
-0.27237764 -0.01321 1.3210001 1.6965066e-38
-0.2628924 -0.014762685 1.3219093 1.5298728e-38
-0.25888574 -0.015154286 1.3260001 1.8246809e-38
-0.26168382 -0.02138762 1.3210001 2.286086e-38
-0.38425905 0.34227049 1.3360001 2.2077663e-38
-0.37789717 0.34227049 1.3360001 2.0601823e-38
-0.40249655 0.33293971 1.3360002 2.1698797e-38
-0.39389139 0.33538088 1.3355836 2.2816593e-38
-0.38475379 0.33552939 1.3333079 2.1528775e-38
-0.37576538 0.33415982 1.3333079 1.6218195e-38
-0.36380669 0.33084857 1.3310001 1.2807312e-38
-0.41352385 0.32191241 1.3360001 1.8384721e-38
-0.40365443 0.32511267 1.3345002 1.9214809e-38
-0.39527264 0.32441196 1.3320717 1.9034811e-38
-0.38584372 0.32382795 1.3310003 1.6863146e-38
-0.37470821 0.32628515 1.3310002 1.3637772e-38
-0.36786306 0.32628518 1.3310002 1.3821755e-38
-0.35580191 0.32449591 1.3326668 1.1521236e-38
-0.41225147 0.31555051 1.3360001 1.6818112e-38
-0.40538639 0.31515688 1.3343337 1.7001067e-38
-0.39549717 0.31436953 1.3310001 1.7683868e-38
-0.38623381 0.31427205 1.3310003 1.566717e-38
-0.40461719 0.30537143 1.3360003 1.5906989e-38
-0.39506036 0.30467138 1.3313574 1.6222474e-38
-0.38831401 0.30718637 1.3310001 1.6406891e-38
-0.4020724 0.29773715 1.3360001 1.5944792e-38
-0.39494237 0.29513422 1.3341821 1.4929236e-38
-0.39352351 0.28550768 1.3343334 1.2812334e-38
-0.26083809 0.23539048 1.3360001 1.5859403e-38
-0.25606233 0.23216251 1.335 1.4744807e-38
-0.26225382 0.22161144 1.3335001 1.6405431e-38
-0.25718236 0.22652037 1.3314549 1.5945885e-38
-0.27000287 0.21549524 1.3310001 1.6223893e-38
-0.26516289 0.21514954 1.3310003 1.6129911e-38
-0.25834081 0.21625583 1.3310002 1.6775988e-38
-0.27000287 0.2053543 1.3310001 1.6405776e-38
-0.26448902 0.20520915 1.3324288 1.6681645e-38
-0.25986192 0.20788953 1.3310001 1.7972009e-38
-0.27169302 0.19310066 1.3310002 1.6682717e-38
-0.26529774 0.19606405 1.3339169 1.649906e-38
-0.27270716 0.18518749 1.3318336 1.723697e-38
-0.26545885 0.18561663 1.3356156 1.6960392e-38
-0.27369991 0.17684491 1.3331431 1.7881631e-38
-0.26783621 0.17622477 1.3360001 1.7697971e-38
-0.36190528 0.16542429 1.3310001 1.2813012e-38
-0.35746861 0.16479048 1.3310002 1.7978836e-38
-0.36426386 0.15484002 1.332667 1.3641381e-38
-0.35746861 0.15845239 1.3310001 2.1578093e-38
-0.36461255 0.14552894 1.3316252 1.4105205e-38
-0.26746765 0.14324096 1.3310001 1.8159654e-38
-0.27063668 0.1331 1.3310001 1.2539357e-38
-0.26657325 0.13455512 1.3328751 1.4476173e-38
-0.35452956 0.12437906 1.3326669 1.0599941e-38
-0.34859526 0.12042382 1.3310001 1.6785344e-38
-0.33275002 0.12105764 1.3310001 1.594911e-38
-0.32609338 0.1257917 1.3341821 1.1797791e-38
-0.31464431 0.12414192 1.3335003 4.9788751e-39
-0.27423412 0.12428236 1.3343335 8.0177954e-39
-0.2684724 0.12596571 1.3360002 8.9408167e-39
-0.25447619 0.12087619 1.3360001 1.2720539e-38
-0.34607109 0.11704781 1.3330002 1.4661626e-38
-0.33527526 0.11811 1.3335 1.5581773e-38
-0.32276067 0.11154541 1.3360002 1.2068237e-38
-0.31701565 0.11645321 1.3352859 9.8573219e-39
-0.27384615 0.11705375 1.3338573 1.0500591e-38
-0.26465523 0.11578667 1.3360001 1.6409337e-38
-0.25638476 0.11769524 1.3360001 1.7692922e-38
-0.32322153 0.10486343 1.3330002 1.3906436e-38
-0.23704478 0.051972382 1.3310001 2.0645318e-38
-0.23423664 0.045552172 1.332667 2.1847485e-38
-0.23125717 0.035005175 1.333143 2.1189848e-38
-0.23185837 0.024109254 1.3324287 2.1073522e-38
-0.22943905 0.027887622 1.3310001 1.9943116e-38
-0.23463336 0.015219593 1.3317144 1.9027597e-38
-0.25352383 0.0012676191 1.3310001 1.7200625e-38
-0.2456646 0.0022817147 1.3310002 1.8432607e-38
-0.23614879 0.0053246357 1.3316669 1.5716454e-38
-0.25413367 -0.0056304093 1.3342146 1.7784376e-38
-0.24639983 -0.0017803811 1.335 1.8240324e-38
-0.25550693 -0.015253096 1.3347504 1.9170203e-38
-0.40238959 0.35107526 1.3470001 8.1838128e-39
-0.39457023 0.35131964 1.3470002 1.1032511e-38
-0.38870576 0.35022002 1.3470001 1.8419642e-38
-0.41384974 0.34354916 1.3470001 7.7253542e-39
-0.40425393 0.34412861 1.34325 1.683143e-38
-0.39529663 0.34453794 1.3420001 2.2263373e-38
-0.38726288 0.34636384 1.342 2.2552604e-38
-0.37448189 0.34125143 1.342 2.3388145e-38
-0.42206001 0.33226004 1.3470001 3.8574762e-39
-0.41478118 0.33540946 1.3441875 1.4161732e-38
-0.4051562 0.33645856 1.342 2.1518977e-38
-0.37384287 0.33805621 1.342 1.4749169e-38
-0.36809143 0.33613905 1.342 1.2447502e-38
-0.42268324 0.32412821 1.3438751 8.7333741e-39
-0.41452891 0.32548827 1.342 1.7652902e-38
-0.42425007 0.31582499 1.3465456 9.0153237e-39
-0.41561335 0.31452763 1.342 1.6175618e-38
-0.42462575 0.30916858 1.3470001 8.8410148e-39
-0.41466993 0.30415681 1.3429998 1.5070358e-38
-0.40771237 0.30035236 1.342 1.5160435e-38
-0.42206001 0.29505718 1.3470001 1.1591042e-38
-0.41478175 0.29443902 1.3441875 1.4247434e-38
-0.40451714 0.29289681 1.342 1.5377946e-38
-0.41564575 0.28736001 1.3470001 1.287677e-38
-0.40423131 0.28515616 1.3454617 1.4926704e-38
-0.39798129 0.28280669 1.3436668 1.373211e-38
-0.40281719 0.27838001 1.3470001 1.4287447e-38
-0.25689715 0.23644762 1.342 1.5021017e-38
-0.26252076 0.19452611 1.342 1.7972381e-38
-0.25945333 0.1904362 1.342 1.6222841e-38
-0.26456571 0.18276761 1.342 1.7329185e-38
-0.27223429 0.17637715 1.342 1.806531e-38
-0.26712191 0.17765523 1.342 1.7880563e-38
-0.26426858 0.14239715 1.3470001 1.7700834e-38
-0.26290935 0.13516782 1.3440001 1.6963989e-38
-0.25528857 0.13341716 1.3470001 1.7975274e-38
-0.36048287 0.12443715 1.3470001 6.1735479e-39
-0.35658857 0.12141904 1.342 1.2450636e-38
-0.32408845 0.12251455 1.3420001 8.4762288e-39
-0.31824571 0.12269714 1.342 6.3628899e-39
-0.26470518 0.12532137 1.3427144 1.1152108e-38
-0.25710881 0.12578624 1.3431112 1.4382916e-38
-0.3515029 0.11545715 1.3470001 1.4749165e-38
-0.34396845 0.11358631 1.3438751 1.364568e-38
-0.33494991 0.11427122 1.3435385 1.5118629e-38
-0.32661831 0.11606868 1.3425556 1.1052677e-38
-0.26600811 0.11808302 1.3428334 1.4187675e-38
-0.39182335 0.10884048 1.3445001 2.341769e-38
-0.38870576 0.10904287 1.3470001 2.3050348e-38
-0.34444717 0.10840145 1.3470001 1.2534995e-38
-0.33503687 0.10576271 1.3454617 1.2628304e-38
-0.3284705 0.10480381 1.342 1.2349551e-38
-0.42206001 0.091082864 1.3470001 2.341769e-38
-0.41436291 0.093007147 1.3470001 2.341769e-38
-0.40538293 0.093648575 1.3470001 2.3417689e-38
-0.3954699 0.093415327 1.3470001 2.2772682e-38
-0.38870576 0.093648575 1.3470001 2.1664907e-38
-0.33354288 0.098780006 1.3470001 1.6225715e-38
-0.3296943 0.098780006 1.3470001 1.6327216e-38
-0.4502829 0.080820009 1.3470001 2.341769e-38
-0.44386861 0.080820009 1.3470001 2.341769e-38
-0.43437549 0.081846297 1.3470001 2.341769e-38
-0.42521784 0.083977811 1.3470001 2.341769e-38
-0.41564572 0.084668584 1.3470001 2.3417689e-38
-0.40538287 0.084668577 1.3470001 2.2864518e-38
-0.39537659 0.084754109 1.3470002 2.1202487e-38
-0.45220715 0.074405715 1.3470001 1.8902998e-38
-0.44455001 0.074202143 1.34325 2.2589013e-38
-0.43494314 0.073987551 1.3440001 2.341769e-38
-0.42511868 0.074270599 1.3444998 2.3141463e-38
-0.4153538 0.074353635 1.3460627 2.2126595e-38
-0.40538287 0.074405715 1.3470001 2.0927335e-38
-0.3964029 0.07522209 1.3470001 2.0097219e-38
-0.45156574 0.065425724 1.3470001 1.493031e-38
-0.44414803 0.064234875 1.3427694 1.7059094e-38
-0.43455237 0.063904762 1.3419998 2.2219152e-38
-0.42432758 0.063904762 1.3419998 2.1386879e-38
-0.4147734 0.064008035 1.3441875 2.0096494e-38
-0.4056395 0.064399436 1.3470002 1.8988354e-38
-0.3979423 0.06593886 1.3470001 1.8527013e-38
-0.44364607 0.054546144 1.345889 1.4842054e-38
-0.4345524 0.054958101 1.342 1.9084511e-38
-0.42432767 0.054958101 1.342 1.9267086e-38
-0.41509098 0.054357354 1.3452144 1.8067468e-38
-0.40923148 0.057728577 1.3470001 1.8070355e-38
-0.23283119 0.053728811 1.34325 1.9356766e-38
-0.44066149 0.044900004 1.3470001 1.7059815e-38
-0.43381476 0.046066191 1.3436668 1.8252942e-38
-0.42521542 0.046103995 1.3448124 1.7607565e-38
-0.41750148 0.045816906 1.3457501 1.7789079e-38
-0.23133524 0.046011426 1.342 2.0740417e-38
-0.44102907 0.034617305 1.3461668 1.751717e-38
-0.4348886 0.035920009 1.3470001 1.7977066e-38
-0.4262751 0.036469802 1.3470002 1.8529521e-38
-0.41863912 0.038913336 1.3470001 1.8344055e-38
-0.23133524 0.039620955 1.342 2.1106292e-38
-0.44002005 0.029505717 1.3470001 1.8072137e-38
-0.43553007 0.026298575 1.3470001 1.760973e-38
-0.23133524 0.011502857 1.342 1.7008608e-38
-0.23261333 0.0012780952 1.342 1.645298e-38
-0.24519484 -0.0061849998 1.34325 1.4897861e-38
-0.23903026 -0.0032059527 1.3457501 1.4787718e-38
-0.25139856 -0.016223334 1.3445001 1.8055186e-38
-0.24868286 -0.012369207 1.3436668 1.3514597e-38
-0.40044957 0.35409525 1.3520001 3.3072311e-39
-0.42706037 0.31117463 1.3520001 6.4353315e-39
-0.43068001 0.30910668 1.358 3.5837774e-39
-0.42620191 0.30387807 1.3520001 8.0083913e-39
-0.42748952 0.2948648 1.3520001 5.7089334e-39
-0.42508194 0.28547242 1.3537142 4.141972e-39
-0.41406152 0.28346014 1.3520001 1.3720916e-38
-0.40817529 0.28198859 1.3520001 1.5391627e-38
-0.42809334 0.27806666 1.358 4.2255216e-39
-0.40852067 0.27851558 1.3559999 1.4840977e-38
-0.36342669 0.12286668 1.358 7.4660958e-39
-0.40740001 0.11252 1.358 2.341769e-38
-0.35488382 0.11420857 1.355 1.6590885e-38
-0.41399401 0.10382254 1.3569999 2.341769e-38
-0.40510136 0.10579226 1.3546249 2.341769e-38
-0.39430863 0.10469333 1.3520001 2.341733e-38
-0.38728449 0.10487875 1.3540001 2.2957065e-38
-0.35437334 0.10993333 1.358 1.4379995e-38
-0.34391621 0.10388477 1.355 1.0694339e-38
-0.33864382 0.10172191 1.3520001 9.009776e-39
-0.46171999 0.091826662 1.358 2.3411554e-38
-0.45630163 0.093413971 1.3559999 2.1112075e-38
-0.44749334 0.099586666 1.358 1.9440686e-38
-0.4332667 0.092688881 1.3580002 2.341769e-38
-0.42388359 0.095046356 1.3546667 2.341769e-38
-0.41553333 0.098079056 1.355 2.341769e-38
-0.40431243 0.099146679 1.3520001 2.341769e-38
-0.39272386 0.09730722 1.3520001 2.2863797e-38
-0.38487315 0.095598243 1.3552001 2.1109927e-38
-0.37737238 0.093481585 1.3570001 2.0005375e-38
-0.34273335 0.099586666 1.358 1.3718828e-38
-0.33864382 0.099146679 1.3520001 1.4924929e-38
-0.46223733 0.085618667 1.358 2.0007908e-38
-0.45548427 0.085972458 1.3566154 2.2866317e-38
-0.44463316 0.085987434 1.3556001 2.341769e-38
-0.43521532 0.087118931 1.3537145 2.341769e-38
-0.42877716 0.088845722 1.3520001 2.341769e-38
-0.39066368 0.084725343 1.3520001 2.0742217e-38
-0.38534826 0.085755251 1.3540001 2.0189767e-38
-0.46236664 0.076306671 1.358 1.5947362e-38
-0.45658976 0.075454481 1.3520001 1.8161475e-38
-0.39215159 0.073680438 1.3520001 1.8990139e-38
-0.38600576 0.075183198 1.3547274 1.8529166e-38
-0.45568052 0.06445381 1.3535001 1.6223192e-38
-0.40173718 0.060518101 1.3520001 1.8434455e-38
-0.39345965 0.064013064 1.352 1.8067831e-38
-0.38620448 0.063973337 1.3570001 1.8068191e-38
-0.37377334 0.068546668 1.358 1.8252221e-38
-0.45262289 0.055445723 1.3540001 1.6689201e-38
-0.44809145 0.051504765 1.3520001 1.5022842e-38
-0.41139433 0.052148573 1.3520001 1.7512494e-38
-0.40520668 0.054195721 1.3549999 1.7605767e-38
-0.39568514 0.055354923 1.3570001 1.7513573e-38
-0.38843113 0.057337783 1.3580002 1.8156427e-38
-0.45137334 0.046560004 1.358 1.5574599e-38
-0.44637462 0.044637468 1.3520001 1.5853332e-38
-0.41368741 0.044819765 1.3542501 1.8159657e-38
-0.40826228 0.044404443 1.3579999 1.8160382e-38
-0.45137334 0.037506666 1.358 1.8349419e-38
-0.44680384 0.036768679 1.3520001 1.732989e-38
-0.42298287 0.032834288 1.3520001 1.8529155e-38
-0.41472119 0.035825144 1.3532001 1.8437691e-38
-0.40826225 0.035782225 1.358 1.8620643e-38
-0.44513568 0.026288003 1.3532002 1.8068211e-38
-0.43295446 0.02475257 1.3538002 1.7239863e-38
-0.42456385 0.02580381 1.3549999 1.7976001e-38
-0.4159793 0.027979685 1.3559999 1.8803592e-38
-0.40998667 0.029746667 1.358 1.8436245e-38
-0.43366098 0.018833525 1.3544 1.825293e-38
-0.42292002 0.019400001 1.358 1.2440331e-38
-0.23820955 -0.0038628574 1.3520001 1.5428854e-38
-0.24841811 -0.01549143 1.355 1.547587e-38
-0.4235636 0.28129357 1.3642499 6.0859934e-39
-0.41668862 0.28168666 1.3630002 1.4476849e-38
-0.42499459 0.2781305 1.3646667 4.1430832e-39
-0.41522118 0.27793846 1.365 1.6131704e-38
-0.40889999 0.27649429 1.363 1.4840266e-38
-0.3666099 0.12411163 1.3660001 1.1704924e-38
-0.35957238 0.12072286 1.363 1.9182015e-38
-0.4234286 0.11161143 1.368 2.157593e-38
-0.41564524 0.11170524 1.3638334 2.3233656e-38
-0.37131429 0.11204571 1.368 1.235871e-39
-0.36505029 0.11396267 1.3660001 1.2728368e-38
-0.35957238 0.11293429 1.3630002 2.0739652e-38
-0.44375309 0.10136229 1.368 1.9083807e-38
-0.43475312 0.10283167 1.36675 2.2956339e-38
-0.42465124 0.10518963 1.3635556 2.3049265e-38
-0.41841942 0.10687651 1.3630002 2.341769e-38
-0.38461286 0.10501404 1.3655 2.1758511e-38
-0.37522286 0.10553142 1.368 1.4660124e-38
-0.36577499 0.10484865 1.3675833 1.9546917e-38
-0.35530773 0.10395306 1.3644288 1.5576378e-38
-0.34832224 0.10428032 1.3630002 1.1891423e-38
-0.45320049 0.096093819 1.3635 2.0375238e-38
-0.44462836 0.094908975 1.3650835 2.3416964e-38
-0.43518642 0.097681671 1.363 2.3234018e-38
-0.42772239 0.099304289 1.363 2.341769e-38
-0.38034192 0.098655239 1.363 2.0559281e-38
-0.3745726 0.096780218 1.363 2.0282695e-38
-0.36606291 0.095502727 1.3630003 1.9081268e-38
-0.35604778 0.09602464 1.3651431 1.6129198e-38
-0.34572607 0.098222546 1.3630002 1.5566659e-38
-0.4660162 0.083078101 1.363 1.7234496e-38
-0.45043904 0.089568578 1.363 2.341769e-38
-0.44784287 0.089568578 1.363 2.341769e-38
-0.38196453 0.084700711 1.363 1.9267791e-38
-0.37460163 0.085346952 1.3637146 1.8345134e-38
-0.36573413 0.086076438 1.3653336 1.7975274e-38
-0.35957238 0.088270478 1.363 1.6504101e-38
-0.47033143 0.078171432 1.368 1.7519685e-38
-0.46536714 0.073991433 1.363 1.6868583e-38
-0.38207275 0.074856825 1.363 1.8345131e-38
-0.37419072 0.07535857 1.3642502 1.8343337e-38
-0.36662403 0.078432001 1.368 1.7240576e-38
-0.46381712 0.066445708 1.368 1.7697248e-38
-0.45822763 0.06101048 1.363 1.8526623e-38
-0.38196456 0.065878339 1.363 1.8068558e-38
-0.37559193 0.065362334 1.3635556 1.7790522e-38
-0.36995715 0.068799049 1.363 1.7515366e-38
-0.45563143 0.050625715 1.363 1.6593064e-38
-0.40111145 0.050625715 1.363 1.8157133e-38
-0.39332286 0.051664192 1.363 1.6776366e-38
-0.38475263 0.054648429 1.3637694 1.7050808e-38
-0.45715544 0.045010291 1.3660001 1.7611865e-38
-0.40347165 0.043781213 1.363 1.8437327e-38
-0.39462093 0.044135239 1.3630003 1.696362e-38
-0.3886857 0.045165718 1.368 1.8804323e-38
-0.40399611 0.034471646 1.363 1.8344771e-38
-0.39462098 0.035048574 1.3630002 1.8344422e-38
-0.38813049 0.037644763 1.363 1.8992307e-38
-0.41441691 0.023690239 1.363 1.7056199e-38
-0.40500569 0.025961909 1.3630003 1.7791248e-38
-0.3948001 0.025972622 1.3636253 1.6963276e-38
-0.38813049 0.02726 1.363 1.5579961e-38
-0.43373448 0.015872 1.3660001 1.6960757e-38
-0.42466035 0.01597013 1.3666364 1.2256259e-38
-0.41465965 0.015594403 1.3648752 1.419525e-38
-0.40529498 0.015977278 1.3658572 1.6683806e-38
-0.39579624 0.015620892 1.3670626 1.4658028e-38
-0.38825142 0.011725714 1.368 1.4378558e-38
-0.41300571 0.0091200005 1.368 1.5766174e-38
-0.40518856 0.0091200005 1.368 1.5024997e-38
-0.39606857 0.0091200005 1.368 1.4565469e-38
-0.38825142 0.0091200005 1.368 1.4471471e-38
-0.42474863 0.27595308 1.3765001 1.0696854e-38
-0.4163267 0.27580002 1.3790001 1.5392368e-38
-0.3743 0.13002001 1.3790001 2.0465603e-38
-0.37427241 0.12315334 1.3756669 1.5021798e-38
-0.39066142 0.11143096 1.3765001 2.0746829e-38
-0.38259369 0.11237398 1.3773334 1.382178e-38
-0.375581 0.11616953 1.3756669 1.0048246e-38
-0.38542241 0.10880905 1.3765001 1.925626e-38
-0.35200572 0.095525712 1.3740001 1.5663889e-38
-0.3493886 0.095525712 1.3740001 1.8255025e-38
-0.47239432 0.073280007 1.3740001 1.7334945e-38
-0.37032571 0.074588574 1.3740001 1.7697615e-38
-0.36770859 0.074588574 1.3740001 1.7051546e-38
-0.46741781 0.064272389 1.3773335 1.8437321e-38
-0.4634597 0.05533886 1.3770002 1.8806465e-38
-0.46192575 0.044491433 1.3740001 1.8807169e-38
-0.43355948 0.012849714 1.3770002 1.4837018e-38
-0.42790288 0.011777144 1.3740001 1.3085652e-38
-0.39126286 0.015702859 1.3740001 1.437893e-38
-0.38864574 0.014394286 1.3740001 1.4286002e-38
-0.42395946 0.0068836906 1.377125 1.5211545e-38
-0.4145118 0.0052453969 1.3773335 1.3466669e-38
-0.40527368 0.0056752386 1.3756669 1.2355305e-38
-0.39609939 0.006550794 1.3756669 1.1717131e-38
-0.43132862 0.27304289 1.3850001 6.5368976e-39
-0.42473337 0.27436194 1.3850001 1.290992e-38
-0.4168191 0.27304289 1.3850001 1.5025389e-38
-0.38120481 0.13322382 1.3850001 2.1299334e-38
-0.37790716 0.13322382 1.3850001 2.1580588e-38
-0.38252383 0.12399048 1.3850001 1.9453656e-38
-0.37856668 0.12662858 1.3850001 1.8900478e-38
-0.38648099 0.11475714 1.3850001 1.53952e-38
-0.47265875 0.062874608 1.3850001 1.843913e-38
-0.47221908 0.05671905 1.3850001 1.8713928e-38
-0.46826196 0.05671905 1.3850001 1.8806123e-38
-0.44451907 0.0013190478 1.3850001 1.6869669e-38
-0.43509731 0.0050877552 1.3850001 1.6960755e-38
-0.42385399 0.002198413 1.3850001 1.4379278e-38
-0.41338959 0.0018466668 1.3850001 9.9542792e-39
-0.40428811 0.0019785715 1.3850001 7.1880417e-39
-0.39545056 0.0034295239 1.3850001 9.3913678e-39
-0.38911909 0.0039571431 1.3850001 1.095508e-38
-0.44451907 -0.0026380955 1.3850001 1.668492e-38
-0.43449432 -0.0034295244 1.3850001 1.6683443e-38
-0.42869049 -0.0013190478 1.3850001 1.5945518e-38
-0.41813815 -0.0013190478 1.3850001 7.8294441e-39
-0.40381706 -0.0039571431 1.3850001 1.0413085e-38
-0.39571431 -0.005276191 1.3850001 1.6222097e-38
-0.43156195 0.27138096 1.3900001 4.9818487e-39
-0.42494288 0.27244002 1.3900002 1.4199583e-38
-0.41832381 0.27138096 1.3900001 1.5026111e-38
-0.43156195 0.26476192 1.3900002 2.3067475e-39
-0.42534715 0.26542333 1.3935002 1.319011e-38
-0.41800314 0.26618263 1.3922502 1.5485644e-38
-0.43209526 0.25659811 1.3960001 2.6661623e-39
-0.4258908 0.25837082 1.3960001 1.0046095e-38
-0.38762251 0.13363695 1.3948001 1.7886326e-38
-0.3924042 0.12407353 1.3948001 1.5124778e-38
-0.38699371 0.12532066 1.3900002 1.9916418e-38
-0.39227188 0.11662239 1.3915 1.5675742e-38
-0.38787621 0.11781906 1.3900001 1.6133528e-38
-0.47260007 0.05604127 1.3900001 1.8897956e-38
-0.4699524 0.051628575 1.3900001 1.8346223e-38
-0.47260004 0.048980955 1.3900001 1.8161833e-38
-0.4699524 0.048980955 1.3900001 1.8346214e-38
-0.4507086 0.0013295239 1.396 1.6685643e-38
-0.44579288 0.0059571429 1.3900002 1.7517184e-38
-0.43818098 0.0066190478 1.3900001 1.7051883e-38
-0.39052382 0.0039714286 1.3900001 7.4642545e-39
-0.38655239 0.0013238096 1.3900001 1.1205761e-38
-0.44461304 -0.0051785279 1.3905458 1.7146243e-38
-0.43432987 -0.006378355 1.3900003 1.2620384e-38
-0.42509672 -0.0052976194 1.3905003 9.0236671e-39
-0.41564995 -0.0055645723 1.3908 9.6683022e-39
-0.39052382 -0.005295238 1.3900001 1.7238767e-38
-0.38464025 -0.0042656083 1.3900002 1.668846e-38
-0.37656364 -0.0061376626 1.3900003 1.6502296e-38
-0.43128189 0.26170668 1.4020001 5.5196096e-39
-0.42238039 0.26126161 1.4020002 1.484567e-38
-0.41852671 0.26308668 1.4070001 1.5485609e-38
-0.43121204 0.25379598 1.4070001 4.6998471e-39
-0.42566428 0.25512829 1.4055001 1.2450732e-38
-0.43014002 0.24522001 1.4070001 7.4671187e-39
-0.42478001 0.24790001 1.4070001 1.1441233e-38
-0.43014002 0.23986001 1.4070001 1.1983593e-38
-0.39727288 0.12573858 1.4045 1.3832614e-38
-0.40066001 0.11658 1.4070001 1.9901639e-38
-0.45264572 0.0040057148 1.4020001 1.6961507e-38
-0.23718002 0.0013400002 1.4070001 2.2216627e-38
-0.42029431 0.26352859 1.419 1.512221e-38
-0.43466577 0.25164858 1.4130001 6.3600439e-39
-0.42236212 0.25510898 1.4130002 1.5488147e-38
-0.41851717 0.25568572 1.4130001 1.5488493e-38
-0.43466577 0.24895717 1.4130001 6.6369993e-39
-0.42485216 0.24447933 1.4133751 1.2446763e-38
-0.41723147 0.24564287 1.4138572 1.5763288e-38
-0.43110573 0.23785144 1.419 1.1800683e-38
-0.42705142 0.23920286 1.419 1.1892508e-38
-0.39967719 0.13053429 1.4130001 1.4660218e-38
-0.40407714 0.12298 1.419 9.9625581e-39
-0.40236861 0.11976858 1.4130001 1.4934571e-38
-0.4234286 0.24021429 1.4250001 1.3738228e-38
-0.43021432 0.23614287 1.4250001 1.2076544e-38
-0.4254643 0.23682144 1.4250001 1.1987237e-38
-0.41573811 0.23478572 1.4250001 1.5581417e-38
-0.40578571 0.13164286 1.4250001 1.548924e-38
-0.40669048 0.12530953 1.4250001 1.4749487e-38
-0.40850002 0.11807143 1.4250001 2.1934937e-38
-0.42112291 0.24122573 1.4310001 1.5398814e-38
-0.41839719 0.24122573 1.4310001 1.5489215e-38
-0.43292475 0.23220097 1.437 1.2444607e-38
-0.42474371 0.23389639 1.4331819 1.3643894e-38
-0.41748863 0.23123145 1.4310001 1.521697e-38
-0.42015141 0.22855143 1.437 1.5294395e-38
-0.41418085 0.22554164 1.4352858 1.2724094e-38
-0.40541297 0.20454878 1.4370002 1.4470743e-38
-0.3956829 0.20124857 1.4310001 1.3644597e-38
-0.42083573 0.1922843 1.437 1.9452923e-38
-0.41330856 0.19365285 1.437 1.8345504e-38
-0.40509713 0.19433716 1.4370002 1.5579994e-38
-0.39524287 0.19419907 1.4360002 1.34602e-38
-0.42254645 0.18441498 1.4370002 1.9545119e-38
-0.41467714 0.18475716 1.437 1.8161111e-38
-0.40529266 0.18436614 1.4370002 1.5117579e-38
-0.39517501 0.184415 1.4370002 1.3368013e-38
-0.42197621 0.17532922 1.4370002 1.9820627e-38
-0.41624123 0.17459062 1.4370002 1.8160385e-38
-0.40920287 0.17791429 1.437 1.5855866e-38
-0.4330551 0.16246898 1.4370002 2.341769e-38
-0.42416593 0.16395485 1.4370003 2.3233297e-38
-0.41558951 0.16407652 1.4370002 2.1017724e-38
-0.40372857 0.16286001 1.437 1.5304472e-38
-0.39825431 0.16559714 1.437 1.3370177e-38
-0.44341716 0.15464857 1.4370002 2.323293e-38
-0.4352057 0.15464857 1.4370002 2.3141104e-38
-0.42425716 0.15464859 1.4370002 2.2219154e-38
-0.41467714 0.1546486 1.4370002 1.9634806e-38
-0.40281624 0.15556096 1.437 1.5673267e-38
-0.39825431 0.15464857 1.437 1.5118318e-38
-0.45026001 0.1437 1.437 2.2315643e-38
-0.44453692 0.14469534 1.4370003 2.2772685e-38
-0.43520573 0.14506859 1.4370002 2.1941848e-38
-0.42425716 0.14506859 1.4370002 2.0282691e-38
-0.41467714 0.14506859 1.4370002 1.8069992e-38
-0.40646574 0.14233142 1.4370002 1.5946258e-38
-0.44423828 0.13466744 1.4370002 2.148159e-38
-0.43552154 0.13506749 1.4370002 2.0099014e-38
-0.42425716 0.13548857 1.4370002 1.798067e-38
-0.41442832 0.13449325 1.4370003 1.6778894e-38
-0.40505335 0.13638192 1.432 1.5395958e-38
-0.43931144 0.12727715 1.437 1.9172379e-38
-0.41220173 0.12467144 1.4322002 1.3642422e-38
-0.4519023 0.11687601 1.4370002 1.9910321e-38
-0.41294575 0.11856858 1.4310001 2.2682898e-38
-0.43242288 0.22860289 1.4460001 1.3735348e-38
-0.42552477 0.22646318 1.4470001 1.2170548e-38
-0.4164086 0.22217619 1.4430002 9.7716578e-39
-0.44114003 0.21298002 1.4490001 1.4840968e-38
-0.42228004 0.21390001 1.4490002 1.3087775e-38
-0.41469589 0.21441846 1.4457273 1.0322672e-38
-0.44022003 0.20700002 1.4490001 1.5117201e-38
-0.43332005 0.2001 1.4490001 1.8899745e-38
-0.42551717 0.20489886 1.4478003 1.9913532e-38
-0.41628143 0.20453288 1.44375 1.7700085e-38
-0.43365598 0.19407228 1.4481432 1.8531689e-38
-0.42543957 0.19573756 1.4430001 2.0096861e-38
-0.41709572 0.19549215 1.443 1.8622814e-38
-0.44132406 0.18298802 1.4490002 1.6498703e-38
-0.43350285 0.18441145 1.4450001 1.8807924e-38
-0.42740285 0.1841543 1.4430001 2.0097585e-38
-0.41601598 0.18395798 1.4430001 1.7700141e-38
-0.40610141 0.18381071 1.443 1.4842064e-38
-0.39785573 0.18209288 1.4430001 1.2999217e-38
-0.44337434 0.17486574 1.4490002 1.7147654e-38
-0.43344975 0.17425942 1.443 2.2401379e-38
-0.42740285 0.17316002 1.4430001 2.1848222e-38
-0.41256061 0.17398459 1.4430001 1.5948772e-38
-0.40536687 0.17475201 1.4448001 1.4195617e-38
-0.3989557 0.17540286 1.4445 1.2905225e-38
