# .PCD v0.7 - Point Cloud Data file format
VERSION 0.7
FIELDS x y z rgb
SIZE 4 4 4 4
TYPE F F F F
COUNT 1 1 1 1
WIDTH 1026
HEIGHT 1
VIEWPOINT 0 0 0 1 0 0 0
POINTS 1026
DATA ascii
0.059828572 0.11035048 1.396 2.1319496e-38
0.066143803 0.11334191 1.396 2.2344131e-38
0.074069604 0.11514653 1.3946155 2.3038457e-38
0.084752858 0.11521383 1.3905003 2.2751472e-38
0.095314294 0.11693653 1.3900002 2.341769e-38
0.10193334 0.11781906 1.3900001 2.341769e-38
0.058499049 0.10503238 1.3960001 2.1415995e-38
0.06511429 0.10498223 1.3953333 2.1416711e-38
0.073692076 0.10634603 1.3900002 2.1593935e-38
0.081634924 0.10899366 1.3900001 2.1317741e-38
0.05805587 0.095873438 1.396 1.9225996e-38
0.064957149 0.095454291 1.3920002 1.9604128e-38
0.071485713 0.095314287 1.3900002 2.0063284e-38
0.056947939 0.08531113 1.3960001 1.9726241e-38
0.064866677 0.084723823 1.3900002 1.6746153e-38
0.071485713 0.084723815 1.3900002 1.7582767e-38
0.058499049 0.074453332 1.396 1.610432e-38
0.065098099 0.0743981 1.395 1.5534932e-38
0.072310284 0.073634103 1.3906002 1.5159734e-38
0.12840953 0.070161909 1.3900001 1.8613097e-38
0.13609645 0.071854532 1.3907502 1.8250409e-38
0.14448211 0.073165141 1.3918003 1.7511744e-38
0.15388763 0.070313334 1.3930001 1.7236602e-38
0.057169523 0.067805715 1.396 1.9817323e-38
0.065906398 0.06552653 1.3960001 1.5910189e-38
0.073940612 0.0647787 1.3932729 1.684732e-38
0.082738101 0.062880956 1.3900001 1.9913546e-38
0.12664446 0.063984133 1.3900002 1.746283e-38
0.13547 0.065076664 1.3945001 1.7866881e-38
0.14415839 0.06552653 1.3960001 1.7879815e-38
0.15511112 0.066033021 1.3960001 1.7512473e-38
0.16087238 0.067805715 1.396 1.7235894e-38
0.066666119 0.056409799 1.3960001 1.9083391e-38
0.074328333 0.055749286 1.39375 1.9177027e-38
0.084459066 0.055335242 1.3900001 1.9543309e-38
0.09399049 0.051628575 1.3900001 1.8147001e-38
0.1098762 0.051628575 1.3900001 1.7744347e-38
0.11781906 0.054276194 1.3900001 1.7741121e-38
0.12470286 0.055335242 1.3900001 1.7557458e-38
0.13492042 0.056168027 1.3947142 1.7381394e-38
0.067805715 0.047862858 1.396 1.8160377e-38
0.074696764 0.045456383 1.3956001 1.7977412e-38
0.084723823 0.045009524 1.39 1.8068896e-38
0.095339641 0.045020595 1.390375 1.7877987e-38
0.10590477 0.045009527 1.39 1.7384918e-38
0.11525525 0.04503905 1.3910003 1.7102231e-38
0.12442288 0.045359999 1.3928 1.7562149e-38
0.1337501 0.048128765 1.396 1.7854622e-38
0.076115243 0.036229525 1.396 1.7790871e-38
0.085191801 0.035488062 1.3960001 1.7698673e-38
0.095725723 0.034567621 1.396 1.7975253e-38
0.10476649 0.035365336 1.396 1.8251827e-38
0.11300953 0.037036736 1.3960001 1.8154561e-38
0.12364572 0.038556192 1.396 1.8252147e-38
0.095725715 0.02792 1.396 1.7883752e-38
0.099714287 -0.066476189 1.396 4.9868989e-39
0.10569714 -0.067140952 1.396 1.9735986e-38
0.11373207 -0.066379048 1.3940001 2.341769e-38
0.12046668 -0.064866677 1.3900001 2.341769e-38
0.13827047 -0.062487617 1.396 2.341769e-38
0.14401257 -0.063915052 1.3924 2.3234015e-38
0.15273094 -0.066403329 1.3945 2.3417668e-38
0.097630955 -0.075126193 1.3900002 1.3458756e-38
0.10487513 -0.072221175 1.3900002 2.1672807e-38
0.15821333 -0.07046476 1.396 2.341769e-38
0.16474383 -0.076613024 1.395 2.3417689e-38
0.17283809 -0.078441903 1.396 2.2864868e-38
0.093659535 -0.084061913 1.3900002 2.0929827e-38
0.16812383 -0.082076192 1.3900001 2.3417683e-38
0.17504689 -0.084072381 1.3924001 2.1756727e-38
0.18214476 -0.087748572 1.396 2.0558171e-38
0.099285722 -0.17739049 1.3900001 9.2185036e-39
0.10259524 -0.17672859 1.3900001 1.1795995e-38
0.17777048 -0.1777762 1.3930001 2.2496091e-38
0.18136191 -0.17606668 1.3900001 2.2865591e-38
0.099428579 -0.1842781 1.3920002 1.2169816e-38
0.10491192 -0.18599527 1.3900002 1.6393571e-38
0.16812383 -0.18665718 1.3900001 2.0178974e-38
0.17452429 -0.18513668 1.3935002 2.1295037e-38
0.18303113 -0.18657652 1.3960001 2.1939322e-38
0.099714287 -0.1901219 1.396 1.3090642e-38
0.042764526 0.23520905 1.4032502 2.2576376e-38
0.037966669 0.2242267 1.4070001 2.3050348e-38
0.041392382 0.22432001 1.4020001 2.2298637e-38
0.037269391 0.21464571 1.4048573 2.2312067e-38
0.041392382 0.21764383 1.4020001 2.2022449e-38
0.15782516 0.21443926 1.4020001 1.4289269e-38
0.16485326 0.21448582 1.4051818 1.6689219e-38
0.17018001 0.21440001 1.4070001 2.1200279e-38
0.037671976 0.2055735 1.4055716 1.9823142e-38
0.041392382 0.20429143 1.4020002 2.0097559e-38
0.15675697 0.20616078 1.4020003 1.3183637e-38
0.16432154 0.20526266 1.4050001 1.7150202e-38
0.17018001 0.20636001 1.4070001 2.2308048e-38
0.037966669 0.19876668 1.4070001 1.844127e-38
0.043275878 0.19451335 1.4053334 1.9449312e-38
0.15889335 0.19628 1.4020002 1.4098416e-38
0.16519713 0.19484967 1.4045 2.0286266e-38
0.17018001 0.19430001 1.4070001 2.156691e-38
0.044689339 0.18438916 1.405 1.8711054e-38
0.15889335 0.18826857 1.4020001 1.8985446e-38
0.16520537 0.1848698 1.4020003 2.1386134e-38
0.043930907 0.17439532 1.4056364 1.6219954e-38
0.16490191 0.17691906 1.4020001 1.8435519e-38
0.04520867 0.16506314 1.4045 1.4262215e-38
0.052741908 0.16356668 1.4020001 1.1712118e-38
0.04958 0.15946001 1.4070001 1.1890315e-38
0.055265717 0.15738383 1.4055716 8.1031751e-39
0.062479526 0.1533543 1.40325 4.9713768e-39
0.074773334 0.15088192 1.4020001 6.3598071e-39
0.084119998 0.15088192 1.4020002 1.1429461e-38
0.094801918 0.15088192 1.4020002 1.0592153e-38
0.10444817 0.15256163 1.4034288 1.2996721e-38
0.11292643 0.15301929 1.4032501 1.0600715e-38
0.075040013 0.14873999 1.4070001 1.9096055e-40
0.086028002 0.148204 1.4070001 6.5427396e-39
0.095140003 0.14606 1.4070001 7.4685733e-39
0.10586 0.14873999 1.4070001 6.8243081e-39
0.11503287 0.14045 1.4045 1.511857e-38
0.088440001 0.13266 1.4070001 2.2121489e-38
0.095377959 0.13437223 1.4048572 1.9353833e-38
0.10335556 0.13547958 1.4053334 1.8893608e-38
0.11443171 0.13659525 1.404143 1.9265973e-38
0.065133974 0.1226889 1.4053334 2.341769e-38
0.074474819 0.12472308 1.404778 2.3417689e-38
0.084204353 0.12812409 1.4034288 2.2958505e-38
0.093466669 0.12951809 1.4020001 2.2866667e-38
0.056030076 0.11378572 1.4055716 2.198221e-38
0.0619932 0.11654721 1.4020002 2.3104005e-38
0.048508 0.10264402 1.4070001 2.0311072e-38
0.053455949 0.10424262 1.4032502 2.1045758e-38
0.048181273 0.095027313 1.4053334 1.9118286e-38
0.053142477 0.094267808 1.4020001 1.820215e-38
0.048151907 0.085607626 1.4045 1.7752728e-38
0.052741904 0.084787622 1.4020001 1.9724426e-38
0.04817393 0.0749406 1.4051249 1.8062041e-38
0.053409524 0.074773341 1.4020002 1.9911718e-38
0.049044002 0.065123998 1.4070001 1.760758e-38
0.054589879 0.063829869 1.404273 1.9637666e-38
0.061230212 0.063519195 1.4020002 1.8979673e-38
0.14671485 0.061730858 1.4030001 1.7788696e-38
0.15403165 0.063124336 1.4036669 1.7696506e-38
0.04958 0.057620004 1.4070001 1.7423546e-38
0.055293612 0.055676471 1.4062858 1.889758e-38
0.062023811 0.054389805 1.4027144 1.926672e-38
0.14423038 0.055105507 1.4036669 1.7975236e-38
0.15276 0.056280006 1.4070001 1.8250402e-38
0.064334899 0.045851432 1.4047273 1.797598e-38
0.070767626 0.041392382 1.4020001 1.7512855e-38
0.12951809 0.041392382 1.4020001 1.8428293e-38
0.13442953 0.04413905 1.4045 1.8521588e-38
0.1407 0.048239999 1.4070001 1.8160008e-38
0.067670003 0.036849998 1.4070001 1.7974178e-38
0.073511571 0.033413604 1.4034287 1.7975628e-38
0.085010163 0.030710479 1.4020002 1.7791939e-38
0.10681906 0.030710477 1.4020001 1.8067824e-38
0.11596213 0.032811854 1.4031111 1.8527708e-38
0.12514961 0.035632558 1.4047273 1.8528775e-38
0.077720001 0.026800001 1.4070001 1.7701197e-38
0.086014628 0.025667276 1.4051819 1.8069248e-38
0.094703905 0.023270763 1.4045002 1.7883421e-38
0.10397933 0.024652792 1.4048573 1.7975267e-38
0.11211334 0.027246669 1.4070001 1.8158946e-38
0.13587601 -0.056548007 1.4070001 2.332549e-38
0.14248668 -0.055833336 1.4070001 2.3233282e-38
0.10567429 -0.064203337 1.4045 1.5480608e-38
0.11489105 -0.063469335 1.406 2.3142183e-38
0.12658115 -0.062354483 1.4050001 2.2865236e-38
0.13441925 -0.061196771 1.403 2.3233657e-38
0.14511257 -0.060662668 1.403 2.2494995e-38
0.15559468 -0.064539433 1.406 2.1660895e-38
0.16428402 -0.067268007 1.4070001 2.176031e-38
0.17554002 -0.066808574 1.4070002 2.2958152e-38
0.18117885 -0.064494669 1.4050001 2.1752412e-38
0.16566874 -0.072590008 1.4028333 2.3417689e-38
0.17461008 -0.073810242 1.4049166 2.2586846e-38
0.18025714 -0.074773341 1.4020001 2.1109918e-38
0.18114731 -0.083229847 1.4020002 2.0647844e-38
0.18826857 -0.15088192 1.4020001 1.8459392e-38
0.18114731 -0.18203746 1.4020002 2.3138944e-38
0.03902572 0.24088287 1.4130001 1.4032355e-38
0.028379999 0.23109429 1.419 1.0194207e-38
0.035364181 0.23450966 1.4157693 1.8258315e-38
0.026578095 0.22388668 1.4189999 7.7499008e-39
0.032892656 0.22525676 1.4138573 2.3050327e-38
0.024325717 0.21487713 1.4189999 9.039541e-39
0.032297146 0.2153143 1.4130001 2.2955994e-38
0.024703268 0.2059339 1.4185716 9.8707254e-39
0.032297146 0.20454858 1.4130001 1.9914611e-38
0.027704285 0.19663286 1.419 1.3201616e-38
0.03447143 0.19413143 1.4155716 1.8343681e-38
0.041717146 0.19243716 1.4130001 1.8160748e-38
0.035362422 0.18513827 1.4157693 1.6961102e-38
0.041717146 0.18705429 1.4130001 1.7695105e-38
0.036645979 0.17564702 1.4157273 1.38146e-38
0.03902572 0.16821429 1.4130001 1.5638953e-38
0.10362001 0.15206572 1.4130001 1.1146378e-38
0.11652572 0.15155144 1.4145001 8.4726639e-39
0.12246001 0.15206572 1.4130001 6.1681599e-39
0.066592574 0.14854687 1.4154001 6.9899752e-39
0.075518101 0.14429337 1.4159999 9.9469952e-39
0.08448714 0.14373001 1.4137502 9.3981949e-39
0.094392255 0.14495268 1.4130002 8.8471973e-39
0.104876 0.14506803 1.4130002 1.0502731e-38
0.11554763 0.14606193 1.4135002 1.0409075e-38
0.12246001 0.14802858 1.4130001 7.6389081e-39
0.058111429 0.13108857 1.419 2.3050348e-38
0.065679431 0.13162914 1.419 2.2773398e-38
0.075520009 0.13486286 1.4160001 2.0093589e-38
0.084487148 0.13632716 1.4137501 1.6952452e-38
0.092181429 0.13793573 1.4130001 1.4739397e-38
0.10900287 0.13860859 1.4130001 1.7595307e-38
0.0473 0.12162857 1.419 2.341769e-38
0.0539781 0.12483285 1.4170001 2.341769e-38
0.063741915 0.12703621 1.414 2.3417689e-38
0.074014291 0.12784287 1.4130001 2.3417689e-38
0.039191429 0.11216857 1.419 2.341769e-38
0.046824906 0.11350818 1.4164288 2.2847942e-38
0.052966665 0.11760858 1.4140003 2.3226078e-38
0.038290478 0.10451048 1.419 2.1466081e-38
0.044441819 0.10590624 1.414091 2.0311891e-38
0.027028572 0.093248576 1.419 1.49346e-38
0.035057146 0.094400011 1.4160001 1.7307175e-38
0.043062862 0.0942 1.4130001 1.4154865e-38
0.027298857 0.085680567 1.419 1.5301577e-38
0.035083812 0.085018113 1.4170001 1.6470882e-38
0.043062858 0.084780008 1.4130001 1.672662e-38
0.035864834 0.076407693 1.4189999 1.5818716e-38
0.043062862 0.075360008 1.4130001 1.6539055e-38
0.03750214 0.065882154 1.4189999 1.610324e-38
0.04419611 0.064275064 1.414091 1.627615e-38
0.045142204 0.054279782 1.4166924 1.6015363e-38
0.053828575 0.052482858 1.4130001 1.8621714e-38
0.14802858 0.052482858 1.4130001 1.7792303e-38
0.15341145 0.052482858 1.4130001 1.8802848e-38
0.047758285 0.046674859 1.4166001 1.6863498e-38
0.054232199 0.045596763 1.4166 1.7884153e-38
0.061454292 0.042614289 1.4130001 1.7975268e-38
0.13755715 0.043157145 1.4160001 1.8436231e-38
0.14626917 0.04875486 1.4142002 1.7976335e-38
0.15227716 0.048960954 1.4150002 1.861882e-38
0.055408575 0.03648857 1.4189999 1.7331697e-38
0.063538104 0.034349523 1.4145001 1.7974549e-38
0.071322866 0.030951429 1.4130001 1.8343696e-38
0.12649715 0.030951429 1.4130001 1.8434451e-38
0.13308531 0.034859188 1.4155716 1.8712098e-38
0.058111429 0.028379999 1.419 1.7515712e-38
0.065158024 0.025252089 1.4185386 1.7882361e-38
0.074539535 0.023348097 1.4145001 1.751537e-38
0.084107146 0.020858573 1.4130001 1.6965774e-38
0.090162858 0.020185716 1.4130001 1.7608268e-38
0.10765715 0.020185716 1.4130001 1.806853e-38
0.11622144 0.023781432 1.4135002 1.8344048e-38
0.12514615 0.023987032 1.4176154 1.8712828e-38
0.13108857 0.027028572 1.419 1.8712467e-38
0.077803686 0.015251838 1.419 1.760719e-38
0.085020006 0.014840954 1.4170001 1.7513912e-38
0.094231904 0.014808096 1.4135002 1.8066374e-38
0.1050043 0.014807145 1.4135002 1.8527356e-38
0.11481873 0.014857461 1.4183333 1.8896496e-38
0.12135828 0.015406285 1.419 1.9170929e-38
0.079734288 0.0013514286 1.419 2.1851082e-38
0.085140012 0.0054057143 1.4189999 2.1111356e-38
0.09457466 0.0054032146 1.4186251 2.0833689e-38
0.10541144 0.0054057133 1.419 2.0187598e-38
0.11487143 0.0054057147 1.4189999 2.009324e-38
0.12081771 0.0062165721 1.419 2.0185434e-38
0.078382865 -0.006757143 1.419 2.2219863e-38
0.085140012 -0.0054057143 1.4189999 2.2495016e-38
0.09439715 -0.0053900005 1.4160001 2.2771955e-38
0.10524643 -0.0053928574 1.4167502 2.2034397e-38
0.11483192 -0.0054023815 1.4184999 2.1939684e-38
0.12143551 -0.005212653 1.419 2.1385789e-38
0.076048568 -0.015111428 1.4189999 2.1944363e-38
0.085140012 -0.014865715 1.4189999 2.1760335e-38
0.094231926 -0.01480905 1.4135002 2.0927693e-38
0.10496572 -0.01480286 1.4130001 1.9265652e-38
0.11471333 -0.014844762 1.4169999 1.8527367e-38
0.12027714 -0.014865714 1.419 1.7786928e-38
0.14730571 -0.014865714 1.419 2.2774839e-38
0.15000857 -0.017568571 1.419 2.3417666e-38
0.075950295 -0.024055429 1.419 1.9175627e-38
0.085140005 -0.024325714 1.4189999 1.8898309e-38
0.094549291 -0.024314998 1.4182501 1.8713188e-38
0.10538465 -0.024320358 1.4186251 1.7421737e-38
0.11462573 -0.023957139 1.4189999 1.2718005e-38
0.12568286 -0.025677143 1.419 2.1388299e-38
0.13551143 -0.025922861 1.4189999 2.3048909e-38
0.14344449 -0.024904899 1.419 2.3140379e-38
0.15000857 -0.021622857 1.419 2.341694e-38
0.078382865 -0.031082857 1.419 1.7885959e-38
0.085526139 -0.03301347 1.419 1.7791952e-38
0.094406947 -0.034557961 1.419 1.788415e-38
0.10243829 -0.033245143 1.419 1.4006181e-38
0.12703429 -0.033785716 1.419 8.9448524e-39
0.13487259 -0.034866858 1.419 1.7797389e-38
0.14257571 -0.03311 1.419 2.1853597e-38
0.16217142 -0.039191429 1.419 1.7980314e-38
0.12838572 -0.044597145 1.419 6.7271603e-39
0.13456784 -0.046109155 1.4158003 2.093094e-38
0.14429715 -0.048545718 1.4160001 2.3234019e-38
0.15406287 -0.0473 1.419 1.8254401e-38
0.16487429 -0.044597145 1.4189999 1.8991947e-38
0.17433429 -0.045948572 1.419 2.3141452e-38
0.12676369 -0.055373471 1.4181429 1.4284605e-38
0.13322572 -0.054020822 1.4130002 2.1025648e-38
0.14758003 -0.054277144 1.4130001 2.3043107e-38
0.15479714 -0.053670559 1.417154 1.2906699e-38
0.16452572 -0.053937145 1.4160001 1.7702655e-38
0.17501926 -0.054199427 1.4158002 2.3049255e-38
0.18205714 -0.056637146 1.4160001 2.1286772e-38
0.10362001 -0.063248575 1.4130001 9.4938545e-39
0.12406286 -0.060685717 1.4160001 2.2771183e-38
0.15610287 -0.061902862 1.4130001 1.6321454e-38
0.16462572 -0.062351439 1.4130001 1.567397e-38
0.17389618 -0.062650479 1.4130001 2.3233653e-38
0.014865714 -0.097302862 1.419 2.341769e-38
-0.012162857 -0.10406001 1.419 1.4099487e-38
-0.0054057143 -0.10541143 1.419 1.8070355e-38
0.0054057157 -0.10676287 1.4189999 2.2312423e-38
0.013321225 -0.10483226 1.419 2.3049266e-38
-0.0045948569 -0.11460115 1.4189999 1.8625302e-38
0.0054057143 -0.11487143 1.4189999 2.0189401e-38
0.012838571 -0.11554714 1.419 2.0465625e-38
-0.0022523808 -0.12343048 1.419 2.0744382e-38
0.0049552382 -0.12207904 1.4189999 2.1202826e-38
-0.0013514286 -0.13379143 1.419 1.7881995e-38
0.0040542856 -0.13784572 1.419 1.6230036e-38
0.18974572 -0.14937431 1.4130001 1.8567362e-38
0.031214288 0.23750001 1.4250001 2.8994827e-40
0.023071429 0.22528572 1.4250001 1.6534271e-39
0.021714287 0.2022143 1.4250001 3.0342652e-39
0.024428571 0.19542857 1.4250001 5.2580642e-39
0.027336737 0.18515307 1.4250001 3.5989394e-39
0.031214288 0.1805 1.4250001 6.1861512e-39
0.031214288 0.17778571 1.4250001 1.0806393e-40
0.068309531 0.14430954 1.4250001 1.2533539e-38
0.055642858 0.13254765 1.4250001 2.3048184e-38
0.066047624 0.13616668 1.4250001 2.1475088e-38
0.039357144 0.12078572 1.4250001 2.341769e-38
0.045328572 0.12404286 1.4250001 2.341769e-38
0.050214287 0.12892857 1.4250001 2.341769e-38
0.038452383 0.11535715 1.4250001 2.341769e-38
0.043428574 0.11671429 1.4250001 2.3325854e-38
0.033928573 0.10527552 1.4250001 2.1117115e-38
0.026690476 0.080976196 1.4250001 1.5119715e-38
0.027142858 0.074642867 1.4250001 1.5672182e-38
0.032119051 0.072833344 1.4250001 1.594145e-38
0.027142856 0.069214284 1.4250001 1.6407574e-38
0.033385716 0.065414287 1.4250001 1.613059e-38
0.039357144 0.054285716 1.4250001 1.6126277e-38
0.044785716 0.046142861 1.4250001 1.7134258e-38
0.047500003 0.035285715 1.4250001 1.7330253e-38
0.052023809 0.033023812 1.4250001 1.7238775e-38
0.13707143 0.035285715 1.4250001 1.8345828e-38
0.055396102 0.024058441 1.4250002 1.7607908e-38
0.063785717 0.020357145 1.4250001 1.7974556e-38
0.13327144 0.023614287 1.4250001 1.9080528e-38
0.073285721 0.014928572 1.4250001 1.7975621e-38
0.12666667 0.014928572 1.4250001 1.9357475e-38
0.13164286 0.017642858 1.4250001 1.9356763e-38
0.076193891 0.0048469394 1.4250001 2.1020592e-38
0.080071434 0.0067857145 1.4250001 2.1019875e-38
0.12553571 0.0054285717 1.4250001 2.0278725e-38
0.075418383 -0.0048469394 1.4250001 2.1851085e-38
0.1262143 -0.0063333339 1.4250001 2.046418e-38
0.069214284 -0.016285716 1.4250001 1.9734538e-38
0.071928576 -0.012214286 1.4250001 2.3050347e-38
0.12485715 -0.014928572 1.4250001 1.8253643e-38
0.13707143 -0.017642859 1.4250001 2.3417676e-38
0.14467144 -0.016557144 1.4250001 2.295851e-38
0.069214284 -0.024428573 1.4250001 1.806963e-38
0.071928576 -0.0285 1.4250001 1.8066057e-38
0.11807143 -0.0285 1.4250001 1.1066397e-38
0.12424026 -0.023811691 1.4250002 2.0286994e-38
0.13490002 -0.020900002 1.4250001 2.2956715e-38
0.14684287 -0.023614287 1.4250001 2.212803e-38
0.15227143 -0.024699999 1.4250001 1.852629e-38
0.074642867 -0.033928573 1.4250001 1.6228949e-38
0.083561227 -0.037418373 1.4250001 1.7330253e-38
0.096357144 -0.039357144 1.4250001 1.6318257e-38
0.10630953 -0.034833334 1.4250001 7.0893623e-39
0.11603571 -0.031892858 1.4250001 5.3491332e-39
0.1235 -0.035285715 1.4250001 4.7024143e-39
0.13978572 -0.039357144 1.4250001 2.3417686e-38
0.14611906 -0.035285719 1.4250001 1.8879554e-38
0.15064286 -0.032571428 1.4250001 1.241338e-38
0.088214293 -0.042071432 1.4250001 1.7146948e-38
0.095000006 -0.042071432 1.4250001 1.6869618e-38
0.1262143 -0.044785719 1.4250001 1.0849263e-38
0.13978572 -0.042071432 1.4250001 2.341769e-38
0.14385715 -0.043428574 1.4250001 2.3417652e-38
0.15607142 -0.046595242 1.4250001 1.4296818e-38
0.17507143 -0.042071432 1.4250001 2.2499335e-38
0.1235 -0.054285716 1.4250001 1.6592705e-38
0.1045 -0.062428571 1.4250001 6.5520148e-39
0.11671429 -0.061071429 1.4250001 2.3045272e-38
0.016285716 -0.088214293 1.4250001 2.341769e-38
-0.014928574 -0.094999999 1.4250001 1.8990865e-38
-0.0055519482 -0.096603908 1.4250002 2.1760697e-38
0.0059714289 -0.096900001 1.4250001 2.341769e-38
0.014928572 -0.09445715 1.4250001 2.341769e-38
0.021035716 -0.096357152 1.4250001 2.3417687e-38
-0.014476191 -0.10495239 1.4250001 1.2634761e-38
0.0054285717 -0.10178572 1.4250001 2.3234019e-38
0.017100001 -0.10667143 1.4250001 2.2310982e-38
0.021714287 -0.10585714 1.4250001 2.148086e-38
-0.012214286 -0.11535715 1.4250001 1.4107013e-38
-0.0095000006 -0.11671429 1.4250001 1.7054757e-38
0.016557144 -0.1148143 1.4250001 2.0186527e-38
0.021714289 -0.11535715 1.4250001 1.9356392e-38
-0.0063979598 -0.12505102 1.4250001 1.8624603e-38
0.0060102041 -0.1277653 1.4250001 2.0283755e-38
0.013119049 -0.12395238 1.4250001 2.0371631e-38
-0.0047500003 -0.13571429 1.4250001 1.4108108e-38
0.0062428578 -0.13408573 1.4250001 1.8807917e-38
0.012214286 -0.13707143 1.4250001 2.0556746e-38
-0.0022619048 -0.14340477 1.4250001 1.1246435e-38
0.0054285713 -0.14385714 1.4250001 1.2442828e-38
0.012214286 -0.14521429 1.4250001 1.3815319e-38
0.19407144 -0.15064286 1.4250001 1.5428897e-38
0.017772857 0.20506716 1.4355001 3.6770212e-40
0.021005144 0.19341202 1.4322002 3.6772874e-40
0.022508573 0.18690714 1.4325001 1.847556e-40
0.067060001 0.14233142 1.437 1.7052191e-38
0.038319997 0.13001429 1.437 2.3417687e-38
0.045129523 0.13311525 1.4360001 2.3417686e-38
0.05214572 0.13515143 1.4334 2.3048888e-38
0.064322859 0.13822572 1.437 2.083151e-38
0.037354287 0.12436857 1.4350002 2.3141823e-38
0.043611433 0.12674573 1.4310001 2.341769e-38
0.02874 0.11222287 1.437 1.7880575e-38
0.033607431 0.11531544 1.4346001 2.1299718e-38
0.028055713 0.10469572 1.437 1.6037389e-38
0.031345718 0.10766573 1.4310001 2.0188695e-38
0.027371429 0.099905714 1.437 1.4748462e-38
0.027333334 0.064229526 1.4350002 1.6040228e-38
0.03225429 0.062237151 1.4310001 1.6222838e-38
0.02874 0.054742858 1.437 1.6317533e-38
0.034394033 0.055010658 1.4342729 1.6224622e-38
0.037597146 0.047165718 1.4355 1.6225346e-38
0.04293 0.04429286 1.4310001 1.7601047e-38
0.04497429 0.03952286 1.4310001 1.7512138e-38
0.13764858 0.031345718 1.4310001 1.8803936e-38
0.050425716 0.027257144 1.4310001 1.7424587e-38
0.13492286 0.023168573 1.4310001 1.9263841e-38
0.057480004 0.015054286 1.4370002 1.8068539e-38
0.065485239 0.01500524 1.4325001 1.8343692e-38
0.072231427 0.012265715 1.4310001 1.8803955e-38
0.12947144 0.012265715 1.4310001 1.9633701e-38
0.13483028 0.015589143 1.4358002 1.9541152e-38
0.05748 0.0082114292 1.437 1.8620954e-38
0.065691434 0.0054742876 1.4370002 1.991209e-38
0.072776578 0.0062691434 1.4310001 2.0279423e-38
0.12947145 0.0040885718 1.4310001 2.0462756e-38
0.13384286 0.0054628574 1.4340001 2.0555653e-38
0.066549242 -0.0051514297 1.435154 2.2496453e-38
0.072231427 -0.0040885718 1.4310001 2.1938254e-38
0.12947145 -0.0040885722 1.4310001 2.1110267e-38
0.13513897 -0.0058433772 1.4359093 2.0001746e-38
0.14278762 -0.0077552386 1.4370002 1.8803901e-38
0.066156328 -0.014636328 1.4344287 1.9544402e-38
0.12947145 -0.014991431 1.4310001 2.0371264e-38
0.13461593 -0.014220001 1.4318572 2.0095412e-38
0.14128286 -0.013174287 1.4310001 2.0282666e-38
0.064704575 -0.024570288 1.4334 1.585443e-38
0.15686002 -0.026463432 1.4322002 1.42882e-38
0.16012286 -0.02874 1.437 1.4933231e-38
0.067539997 -0.034456193 1.4343334 1.2728773e-38
0.074275717 -0.03884143 1.4310001 1.4839926e-38
0.080408581 -0.03952286 1.4310001 1.7423517e-38
0.10494001 -0.03952286 1.4310001 8.9084425e-39
0.11472001 -0.036194287 1.434 8.2957486e-39
0.12291144 -0.039605714 1.434 5.0520803e-39
0.14718859 -0.03952286 1.4310001 2.0262074e-38
0.15521143 -0.036616005 1.4346001 1.2807641e-38
0.16080715 -0.034898572 1.437 1.7055491e-38
0.075613573 -0.044820715 1.4370002 1.2807668e-38
0.08418677 -0.045257408 1.4320909 1.6411881e-38
0.095502853 -0.046387147 1.4325 1.6500466e-38
0.10341239 -0.043279048 1.4350002 1.04837e-38
0.11906572 -0.045162857 1.437 1.4839514e-38
0.12291144 -0.045068573 1.434 1.4930596e-38
0.14855145 -0.04361143 1.4310001 2.0377286e-38
0.15506166 -0.043494292 1.4335715 1.5757894e-38
0.078008577 -0.050637145 1.437 1.1884279e-38
0.085190915 -0.053106241 1.4364548 1.3922632e-38
0.095279053 -0.053795245 1.4360001 1.5488504e-38
0.10674857 -0.058848571 1.437 8.4655033e-39
0.11593571 -0.055348106 1.4350002 1.9267082e-38
0.12220287 -0.051334288 1.4310001 1.8810062e-38
0.017791428 -0.069797143 1.437 2.341769e-38
0.02874 -0.069797143 1.437 2.341769e-38
0.099905714 -0.061585713 1.437 7.9353388e-39
0.10379143 -0.061457142 1.434 7.7314751e-39
0.1117543 -0.061328575 1.4310001 1.8533873e-38
-0.032845713 -0.078008577 1.437 2.3414431e-38
0.0086676199 -0.077096194 1.437 2.341769e-38
0.015396428 -0.075613573 1.4370002 2.341769e-38
0.024634287 -0.075271435 1.4370002 2.341769e-38
0.031477146 -0.076640002 1.437 2.341769e-38
-0.035309147 -0.084577732 1.4370003 2.0926969e-38
-0.024426533 -0.087731026 1.436143 1.9269632e-38
-0.014636328 -0.086842865 1.4344287 2.2865239e-38
-0.0050974027 -0.086435072 1.4364548 2.341769e-38
0.005467501 -0.084782511 1.4358752 2.341769e-38
0.014724001 -0.083713152 1.4316 2.341769e-38
0.024600001 -0.084716432 1.4347501 2.3417689e-38
0.034996331 -0.085242458 1.4370002 2.3140743e-38
-0.032845717 -0.095800005 1.4370002 1.7884145e-38
-0.024594642 -0.095623925 1.4343749 1.8159291e-38
-0.0051788576 -0.091856569 1.4310001 2.3234019e-38
0.0045428574 -0.092220008 1.4310001 2.341769e-38
0.025716191 -0.095111907 1.4335001 2.3232576e-38
0.035309147 -0.095526278 1.4370003 2.1665254e-38
0.042425714 -0.09443143 1.437 2.0742572e-38
-0.031477146 -0.10264286 1.437 1.7978507e-38
-0.023540001 -0.10462761 1.4350001 1.1439462e-38
-0.017717144 -0.10630287 1.4310001 9.6837809e-39
0.027297145 -0.10508477 1.4330001 2.074185e-38
0.032845717 -0.10537999 1.4370002 1.9820261e-38
-0.020528572 -0.11222287 1.437 1.4747652e-38
-0.016407143 -0.11484285 1.4355 1.3920443e-38
0.027287144 -0.1146 1.4325 1.9174174e-38
0.033301909 -0.1154162 1.4370002 1.9542951e-38
0.18749429 -0.11769714 1.437 2.184604e-38
0.19296858 -0.11838143 1.437 2.1848913e-38
-0.012975715 -0.12359858 1.434 1.447654e-38
-0.0095400009 -0.12674573 1.4310001 1.6223934e-38
0.016808573 -0.12629142 1.4310001 2.0557456e-38
0.024277147 -0.12472021 1.434231 2.0465986e-38
0.032845713 -0.12317143 1.437 2.037415e-38
0.18639944 -0.12453999 1.4370002 2.1646903e-38
0.19278952 -0.12442318 1.4356668 2.1847115e-38
-0.013220954 -0.13311526 1.4360002 1.428744e-38
-0.0095400009 -0.13492286 1.4310001 1.4103779e-38
0.015360001 -0.13479429 1.4332501 2.1017355e-38
0.02353943 -0.13357258 1.4370002 2.0464191e-38
0.18749429 -0.13412 1.437 2.0840852e-38
0.19433714 -0.13412 1.4370002 2.2098143e-38
-0.0072866674 -0.14340001 1.434 1.3179303e-38
0.0068200007 -0.14875907 1.4330001 1.2162622e-38
0.015276625 -0.14467248 1.4342728 1.6134253e-38
0.021212857 -0.14438428 1.437 1.8067468e-38
0.18718114 -0.14509545 1.4346002 2.12093e-38
0.19450344 -0.14471258 1.4362003 1.9042029e-38
0.0095800003 -0.15191144 1.437 1.3182853e-38
0.015054286 -0.15191144 1.437 1.3182865e-38
0.020528572 -0.15464857 1.437 1.6592684e-38
0.017865716 0.19789715 1.4430001 3.7057478e-40
0.0096600009 0.15180001 1.4490001 2.2895128e-38
0.015180001 0.15180001 1.4490002 2.2706432e-38
0.02208 0.15180001 1.4490001 2.2618848e-38
0.0082800016 0.14490001 1.4490002 2.1235543e-38
0.015152065 0.14463589 1.4463335 2.0584804e-38
0.024112381 0.14487907 1.4465001 2.0716256e-38
0.034500003 0.14411145 1.4490002 1.9451131e-38
0.044313338 0.14398003 1.4490002 2.2402081e-38
0.059340008 0.14214 1.4490001 1.8250744e-38
0.06341286 0.14337286 1.4475 1.658723e-38
0.0066490914 0.13636911 1.4490004 1.8837758e-38
0.015164288 0.13509573 1.4475002 1.8847169e-38
0.024765357 0.13485396 1.4448751 1.9171992e-38
0.035348162 0.1353094 1.4434288 2.1942921e-38
0.044664286 0.13811573 1.4430001 2.3140017e-38
0.056345716 0.13880287 1.4430002 2.1018439e-38
0.061842863 0.13880287 1.4430001 2.0646754e-38
0.0096600009 0.12834001 1.4490001 1.7830078e-38
0.015180002 0.12558003 1.4490002 1.7852108e-38
0.024382858 0.12449348 1.4455717 1.8435876e-38
0.032708 0.12560973 1.4430001 2.1022411e-38
0.024537621 0.11537001 1.4450001 1.6773484e-38
0.024761429 0.10730429 1.4445002 1.5300139e-38
0.031608574 0.050848573 1.4430001 1.6958946e-38
0.031608574 0.048100002 1.4430001 1.6683796e-38
0.1456162 0.041797146 1.4470003 1.8066727e-38
0.15529428 0.048100002 1.4430001 1.8619547e-38
0.14378382 0.033532381 1.4470003 1.8435874e-38
0.13894716 0.024758574 1.4445 1.9172004e-38
0.14214 0.024840001 1.4490001 1.9173077e-38
0.13827144 0.013322858 1.4470003 1.954223e-38
0.14214 0.015180001 1.4490001 1.9450034e-38
0.057778575 0.0027500002 1.4445 1.972733e-38
0.13894716 0.0055071432 1.4445 2.0002487e-38
0.14332384 0.0050561908 1.4470003 1.9173084e-38
0.058051839 -0.0049212254 1.4464288 2.0097931e-38
0.061842866 -0.0068714293 1.4430002 2.1392985e-38
0.13880287 -0.0013742858 1.4430001 2.0740061e-38
0.14338383 -0.0022904763 1.4430002 1.9450376e-38
0.059340011 -0.015180002 1.4490001 2.1573406e-38
0.061842866 -0.015117144 1.4430002 2.0001427e-38
0.058738858 -0.024544572 1.4478003 1.2821365e-38
0.061842863 -0.024737142 1.4430001 1.3463862e-38
0.059094287 -0.031608574 1.4430001 2.6820432e-39
0.063543431 -0.036037147 1.4441999 1.1803951e-38
0.10856858 -0.039854288 1.4430001 7.0029428e-39
0.11544 -0.039854288 1.4430001 1.7042072e-38
0.15804286 -0.034357142 1.4430001 1.3638144e-38
0.066460006 -0.043848574 1.4478 1.8904427e-38
0.070848577 -0.046088573 1.4445002 1.751283e-38
0.10696192 -0.046361908 1.4460001 1.0321581e-38
0.11402344 -0.044893719 1.4460001 1.6229291e-38
0.017940002 -0.059340008 1.4490001 2.341769e-38
0.075417466 -0.054004133 1.4456668 1.3732817e-38
0.084381148 -0.058544572 1.4430001 1.2627556e-38
0.094825715 -0.057720002 1.4430001 1.4752376e-38
0.10471239 -0.054760002 1.4434999 1.1054149e-38
0.11212 -0.052962858 1.4445 1.6145045e-38
0.0087400004 -0.066700011 1.4490001 2.341769e-38
0.015475001 -0.065000713 1.4445001 2.341769e-38
0.024756191 -0.064634286 1.4440001 2.341769e-38
0.03400531 -0.065451846 1.4447144 2.341769e-38
0.040940002 -0.066700011 1.4490001 2.3417689e-38
0.087537155 -0.062725715 1.4475002 1.1800327e-38
0.094431438 -0.063049726 1.4454002 9.1266667e-39
-0.024205716 -0.076196007 1.4442 2.3050337e-38
-0.01515905 -0.077171437 1.447 2.341769e-38
-0.0049605719 -0.076291434 1.4460001 2.341769e-38
0.0047615389 -0.073561981 1.4448464 2.341769e-38
0.013284763 -0.071004763 1.4430002 2.341769e-38
0.023362858 -0.07008858 1.4430002 2.341769e-38
0.036320411 -0.07381878 1.4430002 2.3325853e-38
0.044916004 -0.074945152 1.4466002 2.295635e-38
0.051060002 -0.078660011 1.4490001 2.2308813e-38
-0.04358191 -0.086243823 1.4450002 1.9729499e-38
-0.039854288 -0.08932858 1.4430001 1.7607588e-38
-0.024889842 -0.082915246 1.443 2.3049269e-38
-0.015666859 -0.082182281 1.4430001 2.341769e-38
-0.0063217147 -0.081632577 1.4430001 2.341769e-38
0.039854288 -0.08245714 1.4430001 2.323294e-38
0.045418099 -0.085323811 1.4450001 2.2124779e-38
0.051060002 -0.086020008 1.4490001 2.1016649e-38
-0.041859999 -0.095220014 1.4490001 1.8252217e-38
-0.038205147 -0.094276004 1.4430001 1.7883073e-38
0.046165306 -0.094880417 1.4438573 2.0464907e-38
0.051750004 -0.094530009 1.4490001 2.0463831e-38
-0.040020004 -0.10074001 1.4490001 1.7608994e-38
-0.034420002 -0.10522328 1.4455715 1.8069606e-38
-0.02794381 -0.10765239 1.4430002 1.7791523e-38
0.038676333 -0.1050347 1.4430001 1.9819177e-38
0.045401432 -0.10455572 1.4445 1.9544027e-38
0.051060002 -0.10074001 1.4490001 2.009469e-38
-0.031740002 -0.11178001 1.4490001 2.1020948e-38
-0.024090715 -0.11458714 1.44525 1.7882691e-38
0.038676333 -0.11485103 1.4430001 1.889614e-38
0.043937556 -0.11525756 1.4481432 1.8066755e-38
0.19102572 -0.11681429 1.4430001 2.0930932e-38
-0.0222649 -0.12471879 1.4481432 1.594662e-38
-0.016766287 -0.12560973 1.4430001 1.4932479e-38
0.037105717 -0.12574714 1.443 2.0370914e-38
0.044357147 -0.12479145 1.4490002 2.1207506e-38
-0.020700002 -0.13248001 1.4490001 1.5758955e-38
-0.016974287 -0.13578668 1.4450002 1.6590145e-38
0.027760571 -0.13660401 1.4430001 2.0280515e-38
0.035456572 -0.13477165 1.4430002 2.0097208e-38
0.043700006 -0.13508667 1.4490002 2.0004289e-38
0.18552858 -0.13880287 1.4430001 1.843986e-38
-0.013305715 -0.14266382 1.4450001 1.7233404e-38
-0.0096600009 -0.14766002 1.4490001 1.4839891e-38
0.0013742858 -0.14979714 1.4430001 1.3547316e-38
0.025882382 -0.14590335 1.4430001 1.779197e-38
0.034097716 -0.14491086 1.4435999 2.0189754e-38
0.041124001 -0.14434801 1.4490002 1.8523771e-38
0.18552858 -0.14292572 1.4430001 1.8714291e-38
0.0073485724 -0.15572667 1.4470003 1.5301196e-38
0.015117144 -0.15666857 1.4430001 1.5759689e-38
0.025122857 -0.15535402 1.4435455 1.7518596e-38
0.034845002 -0.15352499 1.4490002 1.6774574e-38
0.040020004 -0.15042001 1.4490001 1.5854413e-38
0.0096600009 -0.16284001 1.4490001 1.9541855e-38
0.015162382 -0.16543192 1.4475002 1.6960025e-38
0.022238778 -0.16393185 1.4464288 1.4836644e-38
0.015180001 -0.17250001 1.4490001 5.1763124e-39
0.02217143 0.16351429 1.455 2.331611e-38
0.0062357145 0.15416071 1.455 2.3005998e-38
0.015242858 0.15797144 1.4550002 2.3387795e-38
0.024942858 0.15520002 1.455 2.2364595e-38
0.033719048 0.15289049 1.4550002 1.9995267e-38
0.044342857 0.15242857 1.455 1.9269917e-38
0.065128572 0.15104286 1.455 1.068859e-38
-0.0013857143 0.14272858 1.455 1.9574974e-38
0.0027714288 0.1455 1.4550002 2.1046131e-38
0.029100001 0.14827143 1.455 1.9075163e-38
0.034642857 0.14827143 1.455 1.8803964e-38
0.043880951 0.14827143 1.4550002 2.1757413e-38
0.055428572 0.14457619 1.4550002 1.8340437e-38
0.063742861 0.14827143 1.455 1.0033179e-38
-0.0013857143 0.1358 1.455 1.8376442e-38
0.0030485715 0.13330573 1.455 1.7552419e-38
-0.0013857143 0.12748572 1.455 1.7095763e-38
0.0060047614 0.12517619 1.4550002 1.6909225e-38
0.015242858 0.12055714 1.4550002 1.7675638e-38
0.0097000003 0.11778571 1.455 1.5619981e-38
0.015935715 0.11709286 1.455 1.7597124e-38
0.020785715 0.10947143 1.455 1.6403614e-38
0.14619286 0.042957142 1.455 1.8158922e-38
0.15436858 0.043234285 1.455 1.8068527e-38
0.14596191 0.035104763 1.4550002 1.825184e-38
0.15381429 0.034989286 1.455 1.8435516e-38
0.14688571 0.024942858 1.455 1.8988684e-38
0.1538143 0.027437145 1.455 1.8711383e-38
0.1455 0.015797144 1.455 1.9542587e-38
0.1455 0.0083142854 1.455 1.9173804e-38
0.055428572 -0.0083142854 1.455 2.0928052e-38
0.056814291 -0.015242858 1.4550002 2.157378e-38
0.056814291 -0.025404762 1.4550002 1.3819701e-38
0.058661908 -0.034642857 1.4550002 6.5458939e-39
0.065128572 -0.04711429 1.455 2.0193357e-38
0.015638778 -0.056022458 1.4550002 2.3417687e-38
0.023557145 -0.059585717 1.4550002 2.341769e-38
0.067900002 -0.054042857 1.4550002 2.0283739e-38
0.072888575 -0.057368573 1.455 1.6677304e-38
-0.0013857143 -0.067900002 1.455 2.341769e-38
0.0052657146 -0.065682858 1.455 2.341769e-38
0.012471429 -0.062357143 1.455 2.341769e-38
0.045728575 -0.065821424 1.455 2.341733e-38
0.054042861 -0.067900002 1.455 2.3231492e-38
0.078985721 -0.062357143 1.455 1.401082e-38
0.084528573 -0.063742861 1.455 1.2538589e-38
-0.012471429 -0.073442861 1.455 2.341769e-38
-0.0058200001 -0.071780004 1.455 2.341769e-38
0.048500001 -0.072057143 1.455 2.2772318e-38
0.054966673 -0.075290486 1.4550002 2.1941114e-38
0.055890482 -0.084220625 1.455 2.0465279e-38
-0.046282861 -0.093951426 1.455 1.9176322e-38
0.056121431 -0.094228581 1.455 2.0280518e-38
-0.041571427 -0.10254286 1.455 1.8065665e-38
-0.037414286 -0.10808572 1.455 1.8067078e-38
0.053696435 -0.10462143 1.455 1.9359639e-38
-0.033257142 -0.11501428 1.455 2.0650388e-38
-0.028176192 -0.1168619 1.4550002 2.0743292e-38
0.048500001 -0.1150143 1.4550002 1.8898654e-38
0.051271431 -0.11362858 1.455 1.8526989e-38
-0.031871427 -0.12055714 1.455 2.0008974e-38
-0.026328571 -0.12471429 1.455 1.7700105e-38
0.048500001 -0.12471429 1.455 2.1941828e-38
0.051271431 -0.12332857 1.455 2.0838372e-38
-0.022448573 -0.13607715 1.455 1.8710992e-38
0.048500001 -0.1344143 1.4550002 1.8435883e-38
-0.015242858 -0.1455 1.4550002 1.8527722e-38
0.04503572 -0.14619286 1.455 1.7050057e-38
-0.0041571432 -0.15104286 1.4550002 1.3734963e-38
0.0032333336 -0.15658572 1.4550002 1.5577781e-38
0.033257142 -0.15935715 1.455 1.4296445e-38
0.04240286 -0.15326002 1.455 1.6314668e-38
0.0061367354 -0.16529593 1.4550002 2.0372694e-38
0.026328571 -0.1649 1.4550002 1.1603697e-38
0.0069285715 -0.17321429 1.455 1.4558659e-38
0.015242858 -0.17552382 1.4550002 1.021973e-38
0.020785715 -0.17321429 1.455 8.0952802e-39
-0.0027828573 0.17114572 1.4610001 1.5616e-39
0.0055885715 0.17184858 1.4670001 1.8683257e-38
0.015335239 0.17289239 1.4640001 2.0512734e-38
0.025045713 0.17253713 1.4610002 2.2647599e-38
0.034833338 0.17138001 1.4630002 2.1521096e-38
0.040351432 0.17114572 1.4610001 2.0041313e-38
-0.012574286 0.16067144 1.4670001 9.2213847e-41
-0.0052988576 0.16417545 1.4634004 1.3238749e-38
0.0052893339 0.16451296 1.4614004 2.264802e-38
0.015305715 0.16558 1.4610002 2.319073e-38
0.026715431 0.16502345 1.4610003 2.2914531e-38
0.034785718 0.16418859 1.4610003 2.115378e-38
0.044229392 0.16397838 1.464429 1.5012354e-38
0.053570002 0.16071001 1.4610001 1.3271098e-38
-0.012574287 0.15508288 1.4670002 8.5680629e-39
-0.0055828574 0.15476573 1.4640002 2.0606747e-38
0.0023190477 0.15630382 1.4610002 2.2982234e-38
0.029220002 0.15723144 1.4610001 2.2371716e-38
0.036640953 0.15630382 1.4610002 1.7057963e-38
0.044525716 0.15514429 1.4610002 1.7144011e-38
0.055674769 0.15450144 1.4615002 1.4654733e-38
0.062614284 0.15305714 1.4610001 1.216728e-38
-0.020957144 0.14670001 1.4670001 1.8403113e-40
-0.01474762 0.14452668 1.4670001 9.5865238e-39
-0.0061677559 0.14519267 1.4618574 1.9583987e-38
0.054822292 0.14776973 1.4610001 1.7695769e-38
-0.020957144 0.13552287 1.4670001 1.1942216e-39
-0.014570205 0.13552287 1.4670002 9.3099341e-39
-0.0069571426 0.13496858 1.4610002 1.7468159e-38
-0.014809716 0.125184 1.4670001 6.3593685e-39
-0.0061620409 0.12483103 1.4610003 1.6558782e-38
0.0023190477 0.12198191 1.4610002 1.6816663e-38
-0.015005001 0.11619072 1.4655001 8.0142249e-39
-0.0055782143 0.1142975 1.4636252 1.7676298e-38
0.0052935244 0.11393925 1.4626002 1.6083444e-38
0.014981428 0.11252715 1.4632502 1.7505292e-38
-0.002794286 0.10758001 1.4670001 1.7695052e-38
0.001397143 0.10758001 1.4670001 1.6860504e-38
0.022262858 0.10574858 1.4610001 1.5208651e-38
0.14390573 0.043311432 1.4670001 1.8159644e-38
0.15444857 0.032002859 1.4610001 1.861883e-38
0.15333544 0.023654288 1.4610001 1.898797e-38
0.14888287 0.013914286 1.4610001 1.9727338e-38
0.15187335 0.015322859 1.4630002 1.9540803e-38
0.14888287 0.0083485711 1.4610001 1.9268154e-38
0.15228859 0.0083828578 1.4670001 1.9265645e-38
0.048900004 -0.0097800009 1.4670001 1.8900113e-38
0.052980006 -0.0076700007 1.4640001 2.0008259e-38
0.052980006 -0.015337145 1.4640001 2.1115322e-38
0.053195518 -0.024508167 1.4644288 1.9084151e-38
0.056273341 -0.034880955 1.4650002 1.0846347e-38
0.048900004 -0.048900004 1.4670001 1.5574237e-38
0.056968104 -0.045346193 1.4650004 1.1980442e-38
0.062614284 -0.044525716 1.4610001 1.6969764e-38
0.0073071425 -0.057425722 1.4617501 2.341769e-38
0.012522858 -0.055657148 1.4610001 2.341769e-38
0.02592629 -0.057698857 1.4634001 2.341769e-38
0.032068573 -0.058557145 1.4640001 2.341769e-38
0.048201434 -0.055187147 1.4670001 1.1418249e-38
0.055783682 -0.055783674 1.464429 8.4871015e-39
0.064030282 -0.055678286 1.4616002 2.0471733e-38
0.070962861 -0.059831429 1.4610001 1.898544e-38
-0.01326 -0.06629429 1.4655001 2.0565728e-38
-0.005578368 -0.064132661 1.4640003 2.2774111e-38
0.0030622859 -0.062663428 1.4622 2.341769e-38
0.036251433 -0.061345715 1.4640001 2.341769e-38
0.04513365 -0.062190797 1.4656668 2.212656e-38
0.055460483 -0.06474334 1.4620003 2.2034352e-38
0.06542825 -0.065428257 1.4616668 2.1758522e-38
0.074393146 -0.065481149 1.4628001 1.7143689e-38
0.083654284 -0.065531433 1.4640001 1.327399e-38
-0.015862286 -0.072076 1.4610001 2.2591162e-38
-0.0097399997 -0.070962861 1.4610001 2.341769e-38
0.058903813 -0.071890481 1.4610002 2.1754565e-38
0.065397151 -0.075137146 1.4610003 2.0186527e-38
0.073489726 -0.074886866 1.4670001 1.8710307e-38
0.059831429 -0.087660007 1.4610001 2.0187617e-38
0.065397143 -0.084877148 1.4610002 2.0003934e-38
0.073983818 -0.085146993 1.4656668 1.8989414e-38
-0.052727431 -0.096806288 1.4646001 1.9451469e-38
-0.047772385 -0.097863816 1.4610002 1.9268152e-38
0.059831433 -0.095080957 1.4610002 1.9911381e-38
0.065397143 -0.094617143 1.4610003 1.9450397e-38
0.075409293 -0.094958588 1.4662504 1.8250061e-38
0.082431436 -0.093608581 1.4670001 1.6407594e-38
-0.051694289 -0.10199144 1.4670001 1.9451829e-38
-0.044010211 -0.10533594 1.4635717 1.8991205e-38
0.058241233 -0.10714001 1.4610002 1.8711038e-38
0.065174855 -0.10500058 1.4622002 1.8618851e-38
0.075445727 -0.10478573 1.4670002 2.0096133e-38
-0.041601714 -0.11419373 1.4658002 1.8713559e-38
-0.036872856 -0.11618429 1.4610001 1.9727345e-38
0.056492001 -0.11576686 1.4610003 2.0282662e-38
0.065700002 -0.1145587 1.4620911 2.0650718e-38
0.075445719 -0.11456574 1.4670004 1.7978141e-38
0.083130009 -0.11666144 1.4670001 1.6593773e-38
-0.040517144 -0.12294859 1.4670001 1.9728421e-38
-0.035094809 -0.12579508 1.463182 1.9083062e-38
-0.029220002 -0.12522858 1.4610001 1.90834e-38
0.056253478 -0.12542737 1.4610003 1.8806831e-38
0.065397143 -0.12522858 1.4610003 1.7328818e-38
0.075389653 -0.12564537 1.4658754 1.6317546e-38
0.084971704 -0.12612392 1.4670001 1.631646e-38
0.090814292 -0.12294859 1.4670001 1.6403628e-38
-0.040517144 -0.13272858 1.4670001 1.9819539e-38
-0.034837145 -0.13515334 1.4630002 1.9727696e-38
-0.027848575 -0.13506287 1.4620001 1.9261669e-38
0.055657145 -0.13496858 1.4610003 1.67767e-38
0.065550163 -0.13527778 1.4643334 1.6498337e-38
0.074048579 -0.13552287 1.4670001 1.6315384e-38
-0.034612734 -0.14465533 1.464273 2.0097201e-38
-0.024962224 -0.14340033 1.4650002 1.9914243e-38
-0.016765716 -0.14809716 1.4670001 1.8987977e-38
0.048700001 -0.14470857 1.4610001 1.640757e-38
0.054765061 -0.14457297 1.4628465 1.6038424e-38
0.064548008 -0.1455823 1.4670004 1.5763289e-38
0.073117152 -0.1429743 1.4670002 1.6131714e-38
-0.0060415878 -0.15559016 1.4630001 1.6494716e-38
0.0013914286 -0.15723144 1.4610001 1.5668547e-38
0.046878096 -0.15548383 1.4620001 1.6407567e-38
0.054416828 -0.15487398 1.4650002 1.5854036e-38
0.062871434 -0.15388532 1.4670002 1.5578885e-38
0.071254291 -0.15228859 1.4670001 1.5579252e-38
-0.0049861232 -0.1650192 1.4648575 2.0097551e-38
0.0013914286 -0.16418858 1.4610001 1.9725542e-38
0.028332382 -0.16766572 1.4630002 7.9223656e-39
0.03514972 -0.16543487 1.4646001 1.0404107e-38
0.044965152 -0.16449583 1.4662005 1.1789515e-38
0.053291027 -0.16346572 1.4670002 9.8743043e-39
-0.0052028582 -0.17406522 1.464273 1.7143355e-38
0.0037767354 -0.17710899 1.4610002 1.3450171e-38
0.015305716 -0.17949429 1.4610001 1.4835939e-38
0.025625275 -0.17570265 1.463308 1.5023528e-38
0.034636002 -0.175128 1.4664 1.9267417e-38
0.045546863 -0.17492229 1.4670001 2.0100788e-38
0.051694289 -0.17464289 1.4670002 1.9451481e-38
-0.0029938775 -0.18302573 1.4670002 1.6763396e-38
0.0055809533 -0.18557048 1.4650002 1.7967677e-38
0.015305715 -0.18505999 1.4610002 1.7959767e-38
0.025161101 -0.18468857 1.4614618 1.8312004e-38
0.035065718 -0.18418209 1.4620911 1.8595081e-38
0.044596434 -0.18394713 1.4632504 1.8248985e-38
-0.015431429 0.16132857 1.473 5.5173745e-40
-0.016366668 0.15337905 1.473 3.5848998e-39
-0.021042857 0.14309144 1.473 1.8403393e-40
-0.018237142 0.1444943 1.473 1.8410259e-40
-0.021042857 0.13327143 1.473 1.7452346e-39
-0.018237142 0.13420667 1.473 9.2267096e-41
-0.018237142 0.12765999 1.473 9.2267096e-41
-0.015431428 0.11222857 1.473 9.7745571e-39
-0.0058920006 0.10633657 1.473 1.8620992e-38
0.0058920006 0.10689771 1.473 1.6589733e-38
0.018237142 0.10802 1.473 1.640433e-38
0.021042857 0.10521429 1.473 1.5668914e-38
0.0491 -0.0070142858 1.473 1.8714638e-38
0.049100004 -0.015431428 1.473 1.9732377e-38
0.048398569 -0.023848571 1.473 2.184998e-38
0.051905718 -0.02946 1.473 1.9371848e-38
0.0491 -0.037877142 1.473 2.3325818e-38
0.053308576 -0.03577286 1.473 1.5666422e-38
0.047977712 -0.045172002 1.473 2.0557435e-38
0.052607149 -0.042787142 1.473 1.5754633e-38
-0.0028057145 -0.057517145 1.473 2.2219084e-38
0.0014028571 -0.057517145 1.473 2.341769e-38
0.022445714 -0.054711431 1.473 2.341769e-38
0.036754858 -0.055272575 1.473 2.3049611e-38
0.043137856 -0.054360714 1.473 1.8617714e-38
0.079962865 -0.068740003 1.473 1.5485555e-38
0.078092381 -0.076221913 1.473 1.8066344e-38
0.079962865 -0.085574292 1.473 1.7791229e-38
0.082768574 -0.088380001 1.473 1.6777437e-38
0.085574284 -0.096485406 1.473 1.4936044e-38
0.091185719 -0.093991429 1.473 1.3656887e-38
-0.053308576 -0.10381144 1.473 1.9635501e-38
-0.048164763 -0.10708477 1.473 2.0186158e-38
0.085574277 -0.10521429 1.473 1.8898987e-38
-0.044423815 -0.1155019 1.473 1.9362506e-38
0.086626425 -0.11398214 1.473 1.6594495e-38
0.09212096 -0.11596952 1.473 1.5855136e-38
-0.042787142 -0.12555571 1.473 1.9728768e-38
0.088380001 -0.12204857 1.473 1.5950901e-38
-0.04228612 -0.1348747 1.4730002 1.9912443e-38
0.079962865 -0.13607715 1.473 1.6040949e-38
0.084171429 -0.13327143 1.473 1.6224983e-38
-0.041618098 -0.14262383 1.473 2.0005366e-38
-0.028057143 -0.1473 1.473 1.9820254e-38
0.07715714 -0.14519572 1.473 1.5486709e-38
-0.012625715 -0.15571716 1.473 1.7881975e-38
0.066495433 -0.15740058 1.473 1.5577446e-38
0.073416196 -0.15104096 1.473 1.53016e-38
-0.012625714 -0.16553715 1.473 1.8901535e-38
-0.0098200003 -0.16273144 1.473 2.0096833e-38
0.04068286 -0.16974571 1.473 1.3268926e-38
0.055646669 -0.16694002 1.473 1.2720498e-38
0.0612581 -0.16226381 1.473 1.105526e-38
-0.013327142 -0.17465571 1.473 1.4653691e-38
-0.0098200003 -0.17816286 1.473 1.4827489e-38
0.04068286 -0.17395428 1.473 1.9640497e-38
0.056114286 -0.17535715 1.473 1.8806467e-38
-0.025152383 0.14213981 1.4836 1.0120051e-39
-0.022834284 0.13446857 1.48 2.1143716e-39
-0.021142857 0.12685715 1.48 1.0112681e-39
-0.016914286 0.11135238 1.48 4.8868098e-39
-0.021228572 0.10897334 1.4860001 4.5953761e-40
-0.015199523 0.10638666 1.4844999 1.1717509e-38
-0.0061219055 0.10213715 1.4826666 1.8711388e-38
0.00549164 0.1027636 1.4826666 1.6684514e-38
0.015190238 0.10562547 1.4837501 1.5761854e-38
0.02264381 0.10331238 1.4860001 1.4932794e-38
-0.0051892065 0.095764443 1.4860001 1.8160006e-38
0.0028304763 0.097651429 1.4860001 1.6868559e-38
0.046514284 -0.009866667 1.48 1.8439461e-38
0.038057141 -0.018323809 1.48 1.8621711e-38
0.044047616 -0.015857143 1.48 1.8621348e-38
0.038211431 -0.025474288 1.4860001 1.8897222e-38
0.044015869 -0.025895558 1.483 1.9452914e-38
0.029720001 -0.038211431 1.4860001 1.9729526e-38
0.03578531 -0.036189664 1.4860002 2.0374875e-38
0.044816971 -0.035056628 1.4832728 2.2494292e-38
0.052152384 -0.035238095 1.48 1.8076453e-38
0.028776512 -0.04528762 1.4860001 2.018938e-38
0.03530572 -0.045195237 1.483 2.1020597e-38
0.043131426 -0.044540949 1.4799999 2.2589007e-38
0.018398095 -0.052363813 1.4860001 2.3417668e-38
0.026359683 -0.053197779 1.4830002 2.3417665e-38
0.03335873 -0.05309207 1.48 2.3233636e-38
0.086329535 -0.069346666 1.4860001 1.382357e-38
0.082236573 -0.075450294 1.4836 1.6682691e-38
0.084617421 -0.08502014 1.4842858 1.6773837e-38
0.087570474 -0.091804765 1.483 1.6401489e-38
0.091990478 -0.091990478 1.4860001 1.9188552e-38
-0.055535238 -0.10740571 1.48 2.0189027e-38
-0.054971434 -0.11558094 1.4799999 1.963694e-38
-0.04812517 -0.11618505 1.4800001 1.9545106e-38
-0.053366859 -0.12508267 1.4824001 1.9727704e-38
-0.047923811 -0.12544763 1.48 1.9544759e-38
-0.047988571 -0.13408953 1.4820001 1.9912461e-38
0.084571429 -0.13813333 1.48 1.5948758e-38
0.083642147 -0.1457569 1.48225 1.5210482e-38
-0.025371429 -0.15081905 1.48 1.8991931e-38
-0.016209524 -0.15504763 1.48 1.8252575e-38
0.075486667 -0.15661858 1.4814999 1.4472193e-38
0.084184907 -0.15545292 1.4838573 1.4010855e-38
0.091990478 -0.15709144 1.4860001 1.2998864e-38
-0.023492953 -0.16728114 1.4860001 1.7791953e-38
-0.016662097 -0.16574781 1.4824001 1.8069988e-38
0.057790477 -0.16773333 1.48 1.3099299e-38
0.066084862 -0.165916 1.4833333 1.1796353e-38
0.074603274 -0.16477415 1.4860002 1.0513878e-38
0.083499052 -0.16275239 1.4860001 1.2447474e-38
-0.023095237 -0.1748616 1.4846667 1.6132789e-38
-0.017147485 -0.17528683 1.4825715 1.5025378e-38
0.057790477 -0.17055239 1.48 2.0283687e-38
0.064735241 -0.17534652 1.484 1.7699025e-38
0.072177142 -0.17596129 1.4860001 1.5948008e-38
-0.022024762 0.10301906 1.4920001 3.768142e-39
-0.016340952 0.1015981 1.4920001 1.2255227e-38
0.0099466667 0.10088763 1.4920001 1.6039868e-38
0.015630478 0.10088763 1.4920001 1.5118273e-38
0.022735238 0.10088763 1.4920001 1.4932784e-38
-0.021314286 0.096624762 1.4920001 8.7323273e-39
-0.015630478 0.095203809 1.4920002 1.5588245e-38
-0.0071047619 0.092361912 1.4920001 1.8161075e-38
0.0062521906 0.094635434 1.4920002 1.6777434e-38
0.015679367 0.095497154 1.4966668 1.5761125e-38
0.022806352 0.095497154 1.4966668 1.5117533e-38
-0.012848573 0.088512383 1.4990001 1.8899373e-38
-0.0056954767 0.085401312 1.4946253 1.7792303e-38
0.0054089529 0.085669778 1.4943337 1.7329526e-38
0.015295919 0.087900549 1.4990001 1.6313935e-38
0.022841904 0.089940004 1.4990001 1.5486327e-38
0.035523813 -0.029840002 1.4920001 1.9268168e-38
0.026998099 -0.037418418 1.4920001 1.8807913e-38
0.034102857 -0.032681905 1.4920001 1.9727356e-38
0.023873758 -0.045382965 1.4943335 1.9269607e-38
0.092795245 -0.069953337 1.4990001 1.1245366e-38
