# .PCD v0.7 - Point Cloud Data file format
VERSION 0.7
FIELDS x y z rgb
SIZE 4 4 4 4
TYPE F F F F
COUNT 1 1 1 1
WIDTH 1017
HEIGHT 1
VIEWPOINT 0 0 0 1 0 0 0
POINTS 1017
DATA ascii
-0.064069048 0.064238295 1.2557857 1.8438736e-38
-0.055434838 0.064842992 1.2575715 1.8900817e-38
-0.049160954 0.068345711 1.2590001 1.9175983e-38
-0.10500231 0.057725586 1.2590001 1.5537073e-38
-0.0983219 0.057554286 1.2590001 1.5541419e-38
-0.082516283 0.055483203 1.2589999 1.7978502e-38
-0.074249581 0.055085059 1.2574373 1.8069266e-38
-0.065187618 0.055434149 1.2575716 1.7886671e-38
-0.056834858 0.057794102 1.2590001 1.7979577e-38
-0.074340954 0.049160954 1.2590001 1.7423896e-38
-0.068345711 0.049160954 1.2590001 1.7699046e-38
-0.12230286 -0.068345711 1.2590001 2.341769e-38
-0.1142354 -0.067501113 1.2581668 2.341769e-38
-0.10603008 -0.067317963 1.2590001 2.341769e-38
-0.099520952 -0.068345711 1.2590001 2.341769e-38
-0.1534781 -0.077938102 1.2590001 2.341769e-38
-0.14509304 -0.075403497 1.2567779 2.341769e-38
-0.13454683 -0.073763669 1.2570769 2.341769e-38
-0.12488054 -0.072212383 1.2567779 2.341769e-38
-0.11544763 -0.071259052 1.2540002 2.341769e-38
-0.10436842 -0.071305871 1.2548335 2.341769e-38
-0.096034288 -0.073890001 1.2565 2.341769e-38
-0.089928575 -0.077938102 1.2590001 2.341769e-38
-0.0011990477 -0.077938102 1.2590001 2.341769e-38
0.0052724765 -0.075988673 1.2585 2.341769e-38
0.014360001 -0.075386837 1.2565 2.341769e-38
0.025113335 -0.075336836 1.2556669 2.341769e-38
0.035901591 -0.075386837 1.2565 2.3417687e-38
0.044289257 -0.076435111 1.2568573 2.1942563e-38
0.05532749 -0.076567762 1.2590001 1.9363265e-38
0.06474857 -0.077938102 1.2590001 1.7423576e-38
-0.16282097 -0.083201908 1.2540001 1.7986791e-38
-0.15525715 -0.080017149 1.2540001 2.3234019e-38
-0.091960005 -0.081211433 1.2540001 2.341769e-38
-0.087374926 -0.085778311 1.2567778 2.3141102e-38
-0.010791428 -0.089928575 1.2590001 2.1205724e-38
-0.0045993482 -0.085201874 1.2563685 2.2957432e-38
0.0040310123 -0.084067799 1.2543124 2.3325854e-38
0.01254 -0.080614291 1.2540001 2.341769e-38
0.048169523 -0.08877524 1.2540001 1.7979944e-38
0.055360641 -0.08496666 1.2545553 1.7976713e-38
0.063309208 -0.083679527 1.2581666 1.8160377e-38
-0.084903821 -0.093278103 1.2556667 2.2310981e-38
-0.0047884528 -0.095686898 1.255875 2.083766e-38
0.0011942858 -0.091960005 1.2540001 2.3234019e-38
0.045859136 -0.096102469 1.2560833 1.0321254e-38
0.052956957 -0.093692206 1.258 1.2916062e-38
-0.0037906351 -0.10483715 1.2556667 1.8440574e-38
0.038456004 -0.10676914 1.2540001 1.4662321e-38
0.04312405 -0.1030169 1.25775 1.3554508e-38
-0.0023957144 -0.11488 1.2565 1.8253308e-38
0.0011942858 -0.11823429 1.2540001 1.835052e-38
0.029857146 -0.11704001 1.2540001 1.8804314e-38
0.035611212 -0.11473503 1.2559232 1.5581796e-38
-0.0011990477 -0.12230286 1.2590001 1.8715714e-38
0.0026883334 -0.12522762 1.25525 1.8623875e-38
0.029379431 -0.12444458 1.2540001 1.69629e-38
0.034482513 -0.12410554 1.2562727 1.4561872e-38
-0.087530479 -0.13669144 1.2590001 1.9914625e-38
0.0062489957 -0.13392518 1.2567778 1.7978515e-38
0.014160819 -0.13700163 1.2540002 1.5578557e-38
0.025342599 -0.13411403 1.2562728 1.4285998e-38
0.033509046 -0.13043666 1.2565 1.3738208e-38
-0.17197716 -0.14928573 1.2540001 1.8347653e-38
-0.08441858 -0.14568892 1.2573333 1.8166122e-38
0.0083933342 -0.14028858 1.2590001 1.4564749e-38
0.01259 -0.14148763 1.2590001 1.3920086e-38
-0.16350929 -0.1527274 1.25775 1.7701222e-38
-0.15556668 -0.15437239 1.2565 1.7332753e-38
-0.14485241 -0.15611009 1.2569999 1.2632575e-38
-0.13482401 -0.15705584 1.255 1.2629359e-38
-0.12420572 -0.15884002 1.2540001 1.3366196e-38
-0.1141396 -0.15781635 1.2540002 1.3181435e-38
-0.10498162 -0.15711819 1.2555001 1.4013357e-38
-0.095542863 -0.15764573 1.2540001 1.5397748e-38
-0.083979532 -0.15540835 1.25525 1.3829349e-38
-0.077938102 -0.15227905 1.2590001 1.2633294e-38
-0.1330943 -0.16187143 1.2590001 1.4748057e-38
-0.12374171 -0.16450934 1.2589999 1.6870342e-38
-0.11510857 -0.16546857 1.2590001 1.7885923e-38
-0.10546321 -0.16538642 1.258375 1.8714617e-38
-0.095688097 -0.16505609 1.255875 1.7240209e-38
-0.088950649 -0.16594018 1.2565 1.5115745e-38
-0.13149557 -0.17785874 1.2590001 1.8905154e-38
-0.12404831 -0.17520216 1.2575716 2.1206797e-38
-0.1151583 -0.17443968 1.2557858 2.1020967e-38
-0.10491715 -0.17425168 1.2551539 1.705512e-38
-0.096361041 -0.17377405 1.2569165 1.4284579e-38
-0.13069619 -0.18225524 1.2590001 1.1342659e-38
-0.12464084 -0.18456288 1.258375 1.2627937e-38
-0.11476573 -0.18410513 1.25525 1.3453392e-38
-0.10663645 -0.18375872 1.2580909 1.5299417e-38
0.055440951 0.33505619 1.2655001 2.0099026e-38
0.06279619 0.3357181 1.268 1.8715371e-38
0.054738283 0.32144266 1.266 2.2033667e-38
0.065041587 0.32238698 1.2646668 1.6595243e-38
0.058290478 0.31798828 1.2663333 1.9539709e-38
0.06421715 0.31625 1.2668889 1.7055481e-38
0.07124953 0.31035811 1.268 2.0189775e-38
0.068834282 0.30190477 1.268 1.8439495e-38
0.074872382 0.30432001 1.2679999 2.0191572e-38
0.082635641 0.30276737 1.2680001 2.0466722e-38
0.068834282 0.29586667 1.268 1.7240922e-38
0.075217418 0.2951766 1.268 1.7704801e-38
0.082419991 0.29556477 1.268 1.8624606e-38
-0.10344572 0.26102 1.263 2.1615511e-38
-0.093822852 0.26342574 1.263 2.2712533e-38
-0.085402861 0.26583144 1.263 2.2616373e-38
-0.12359358 0.25350216 1.263 1.4820822e-38
-0.11547428 0.25500572 1.263 2.1429337e-38
-0.052726097 0.2568945 1.2640001 2.3361803e-38
-0.047775239 0.25333589 1.2646668 2.3271418e-38
-0.13363566 0.24412751 1.264111 2.0471387e-38
-0.12726231 0.24610458 1.263 2.0832915e-38
-0.044093143 0.24745925 1.2650001 2.2802499e-38
-0.036212858 0.24384332 1.2674999 2.2284307e-38
-0.14446114 0.23450249 1.2655001 2.0471404e-38
-0.13736628 0.237444 1.263 2.341769e-38
-0.033476096 0.2365216 1.2645 2.2391644e-38
-0.024876952 0.23210438 1.268 2.341769e-38
-0.015699048 0.23065524 1.268 2.2499329e-38
-0.14553969 0.22543159 1.2646668 1.733784e-38
-0.030071428 0.22493428 1.263 2.341769e-38
-0.024333278 0.22471042 1.2665293 2.3233299e-38
-0.016504128 0.22421458 1.268 2.3050338e-38
0.088156193 0.22582476 1.268 2.0838739e-38
0.092584126 0.22662984 1.2680001 2.1391194e-38
-0.030071428 0.2129057 1.263 2.0926981e-38
-0.024124997 0.2147443 1.26675 2.1020253e-38
-0.014732951 0.21471468 1.268 2.0283755e-38
-0.030071428 0.20488667 1.263 1.9545471e-38
-0.024466123 0.20558152 1.2665714 1.8901176e-38
-0.014974477 0.20698594 1.268 1.8439838e-38
-0.030071428 0.19486284 1.263 1.8070343e-38
-0.026915399 0.19564873 1.2655001 1.7977073e-38
-0.14073429 0.18163143 1.263 2.1643687e-38
-0.031968996 0.18446527 1.2641112 1.8070331e-38
-0.027775239 0.18718097 1.268 1.7703352e-38
-0.14310285 0.17450097 1.2679999 1.1433385e-38
-0.13672476 0.17361239 1.263 1.7041436e-38
-0.12630001 0.17321143 1.263 1.6864236e-38
-0.042901903 0.17281048 1.263 1.7886675e-38
-0.035267498 0.17484404 1.266125 1.6691005e-38
-0.18557081 0.16141842 1.2680001 2.1340394e-38
-0.17605583 0.16339011 1.266125 2.2355171e-38
-0.16504954 0.16384856 1.2650002 2.300054e-38
-0.15417269 0.16383365 1.268 2.20768e-38
-0.14456925 0.16423619 1.268 1.5270244e-38
-0.13519363 0.16538402 1.2656317 8.4812987e-39
-0.12508842 0.16528051 1.2648423 7.8499843e-39
-0.11590682 0.16487755 1.2656317 1.2083052e-38
-0.10709763 0.16389248 1.2635001 1.5583931e-38
-0.070968568 0.16238572 1.263 1.7976688e-38
-0.064234927 0.16179492 1.2646668 1.6873962e-38
-0.055290554 0.16345714 1.2641538 1.6781407e-38
-0.04538871 0.1655713 1.2637144 1.3651445e-38
-0.039208334 0.1676912 1.2667501 1.1255439e-38
-0.19523613 0.15309395 1.2675453 1.6963599e-38
-0.18622983 0.15489839 1.2653077 2.3091316e-38
-0.17575079 0.15784158 1.2630001 2.3299126e-38
-0.16599429 0.15877715 1.263 2.3194309e-38
-0.15468743 0.15693276 1.2630002 2.2928176e-38
-0.14410229 0.1548478 1.2630002 2.1785498e-38
-0.13565403 0.15391405 1.26425 1.7415217e-38
-0.12870573 0.15998 1.263 1.5850325e-39
-0.11502571 0.15668857 1.268 1.8576257e-39
-0.10549276 0.15726081 1.2664616 5.1756132e-39
-0.095640734 0.15610488 1.264111 9.8710967e-39
-0.08336433 0.1558826 1.2652729 1.069582e-38
-0.07475429 0.15794572 1.266 1.3371273e-38
-0.065927617 0.15879206 1.2663333 1.3186881e-38
-0.054281637 0.15767346 1.2665715 6.4551781e-39
-0.048024766 0.1571475 1.2651429 2.4947387e-39
-0.20087716 0.14314 1.263 4.6283627e-40
-0.19525869 0.14470059 1.2640003 1.0238109e-38
-0.18884857 0.14795142 1.263 2.3408933e-38
-0.14176531 0.14417103 1.263 2.0898514e-38
-0.13534883 0.14452037 1.2666667 2.0651451e-38
-0.12639746 0.14451176 1.2680001 1.9729097e-38
-0.11955428 0.14249904 1.268 1.7238032e-38
-0.20087714 0.13472 1.263 3.228317e-39
-0.19726858 0.13592286 1.263 5.3492313e-39
-0.14073429 0.13472 1.263 2.0563185e-38
-0.13501552 0.13502088 1.2658125 2.0837303e-38
-0.12559238 0.13525333 1.2679999 2.249645e-38
-0.11895047 0.13344191 1.268 2.3049265e-38
-0.10023239 0.13163048 1.268 2.341769e-38
-0.093389206 0.13243556 1.2680001 2.3417686e-38
-0.084533334 0.13163048 1.268 2.341769e-38
-0.074354827 0.13266559 1.2680001 2.3417687e-38
-0.065728985 0.13266559 1.2680001 2.3417689e-38
-0.056758098 0.13163048 1.268 2.341769e-38
-0.047097143 0.13163048 1.268 2.341769e-38
-0.20312153 0.12583391 1.268 6.2790671e-39
-0.196457 0.12534317 1.2654999 2.0565375e-38
-0.14073429 0.1238943 1.263 1.963838e-38
-0.13475303 0.12512898 1.2633128 2.0191932e-38
-0.12525161 0.12525579 1.2645627 2.3234019e-38
-0.11564572 0.12528703 1.2648752 2.341769e-38
-0.10610329 0.12649599 1.2649235 2.341769e-38
-0.095178097 0.12842838 1.2650001 2.341769e-38
-0.083451271 0.12798874 1.2638334 2.3325854e-38
-0.073973529 0.12674439 1.265 2.3040623e-38
-0.065040007 0.12646984 1.2646666 2.3232576e-38
-0.055421509 0.12651151 1.2650833 2.3231857e-38
-0.045799047 0.12534954 1.2654999 2.3132837e-38
-0.035947047 0.12457791 1.2666668 2.3325853e-38
-0.026970159 0.1227746 1.268 2.341769e-38
-0.19437006 0.11543585 1.2661818 2.2680488e-38
-0.18884857 0.11427142 1.263 2.1847129e-38
-0.14073429 0.11507334 1.263 1.8069257e-38
-0.13472 0.11547428 1.2630002 1.890083e-38
-0.12509714 0.11547428 1.2630002 2.3049626e-38
-0.11721175 0.11640985 1.2630001 2.341769e-38
-0.044505715 0.11848143 1.263 2.1972123e-38
-0.034382381 0.11587042 1.2643892 2.2098154e-38
-0.027775237 0.11593142 1.268 2.3046043e-38
-0.19466354 0.10448409 1.2672857 2.1849638e-38
-0.18682943 0.10394627 1.2642502 1.8528812e-38
-0.17922571 0.10224286 1.263 1.6591974e-38
-0.14262144 0.10163858 1.2655001 1.3282299e-38
-0.13490738 0.10478834 1.26475 1.6874679e-38
-0.12533772 0.106092 1.2630002 2.1483747e-38
-0.11908286 0.10946 1.263 2.341769e-38
-0.03225844 0.10617949 1.2630001 1.8292547e-38
-0.026210954 0.10424952 1.2654999 1.8762251e-38
-0.19550267 0.093928948 1.2676666 1.9454358e-38
-0.18579634 0.095671244 1.2673333 1.7885944e-38
-0.17628627 0.095463537 1.2665715 1.6225342e-38
-0.1676783 0.092138864 1.263 1.4477592e-38
-0.15095238 0.094194278 1.268 4.3444246e-39
-0.14552173 0.098221146 1.2670001 9.7792444e-39
-0.13487339 0.094336763 1.2666667 1.6043837e-38
-0.12695612 0.096119225 1.2630001 1.8994468e-38
-0.032292087 0.094100446 1.2630002 1.7374139e-38
-0.024968708 0.094377421 1.2658572 1.7649309e-38
-0.19476613 0.085309461 1.2675833 1.8439859e-38
-0.18662357 0.085183598 1.268 1.7608638e-38
-0.17107937 0.087351114 1.268 1.7237315e-38
-0.16665143 0.086948574 1.268 1.2448557e-38
-0.13351075 0.08498162 1.2674999 1.6317908e-38
-0.1276747 0.083684489 1.263 1.7148757e-38
-0.033217363 0.084107473 1.2630002 1.7470279e-38
-0.024638642 0.084783122 1.2665715 1.4710917e-38
-0.19201143 0.078495234 1.268 1.7700845e-38
-0.13163048 0.077287614 1.268 1.6593418e-38
-0.12556776 0.074595615 1.2649233 1.6029789e-38
-0.11788 0.072171427 1.263 1.5170463e-38
-0.043543428 0.072411999 1.263 1.9270317e-38
-0.034882855 0.074577153 1.2630004 1.7390351e-38
-0.027226476 0.073967814 1.2650001 1.6918192e-38
-0.12385362 0.065667331 1.2674999 1.4529788e-38
-0.11702356 0.064693347 1.2643638 1.4986823e-38
-0.052925713 0.063751429 1.263 1.8809702e-38
-0.045468003 0.064713717 1.2630002 1.9084497e-38
-0.034925953 0.065043576 1.2647501 1.712636e-38
-0.027775237 0.06521143 1.268 1.7012896e-38
-0.11459096 0.056690957 1.2664999 1.4989328e-38
-0.10634762 0.053372167 1.2641112 1.517154e-38
-0.094123557 0.054730002 1.2630002 1.6306395e-38
-0.087327436 0.054609716 1.263 1.7794114e-38
-0.061345715 0.052925713 1.263 1.7241666e-38
-0.054565977 0.054128572 1.2630001 1.7609361e-38
-0.045718987 0.055344228 1.2633127 1.8070704e-38
-0.036258601 0.056038164 1.2663335 1.7509217e-38
-0.11230858 0.049512379 1.268 1.5534575e-38
-0.10485953 0.046317976 1.2673749 1.5840665e-38
-0.09437412 0.046012998 1.2656471 1.6961472e-38
-0.084263995 0.045740414 1.2639377 1.7332778e-38
-0.074577138 0.044505712 1.2630002 1.6964353e-38
-0.064764194 0.045501336 1.2640003 1.714802e-38
-0.055453755 0.04580589 1.2658124 1.7424248e-38
-0.046539783 0.04653978 1.268 1.7516448e-38
-0.039851431 0.048304759 1.268 1.7792668e-38
-0.093389206 0.039046347 1.2680001 1.6963634e-38
-0.084576406 0.037040439 1.2672307 1.7332057e-38
-0.074941479 0.037052523 1.2676153 1.705834e-38
-0.065490112 0.037064616 1.268 1.7240939e-38
-0.05648974 0.037972908 1.268 1.7333493e-38
-0.11593143 -0.059173334 1.268 2.341769e-38
-0.1074781 -0.059173338 1.268 2.341769e-38
0.051927619 -0.059173334 1.268 2.3044568e-38
-0.15095238 -0.06641905 1.268 2.3417687e-38
-0.14391312 -0.066657245 1.2674444 2.341769e-38
-0.13505003 -0.065311372 1.2653335 2.341769e-38
-0.12558232 -0.064508177 1.2644287 2.341769e-38
-0.11600257 -0.063294575 1.2635001 2.341769e-38
-0.10501058 -0.062862001 1.2645 2.341769e-38
-0.096259989 -0.066809207 1.2652223 2.341769e-38
-0.0036228579 -0.067454144 1.2680001 2.341769e-38
0.0045011262 -0.066638626 1.2679999 2.341769e-38
0.014088889 -0.067224123 1.268 2.341769e-38
0.02411845 -0.06752488 1.266125 2.341769e-38
0.033968847 -0.068105444 1.2672858 2.341769e-38
0.04709715 -0.067454144 1.2680001 2.341769e-38
0.054507624 -0.065770008 1.2671666 2.3233655e-38
0.06158857 -0.068834282 1.268 2.3417683e-38
-0.15374345 -0.074156076 1.266125 2.3234018e-38
-0.14564334 -0.072218254 1.2638334 2.341769e-38
-0.13351715 -0.070968568 1.263 2.341769e-38
-0.092087075 -0.073152393 1.2651429 2.341769e-38
-0.087235242 -0.077586986 1.2663335 2.2864868e-38
-0.010868571 -0.074872382 1.268 2.3417687e-38
-0.0050631114 -0.074470237 1.2653337 2.341769e-38
0.0040095239 -0.071770474 1.263 2.341769e-38
0.014434285 -0.070968568 1.263 2.341769e-38
0.024057142 -0.070968568 1.263 2.341769e-38
0.034882858 -0.070968568 1.263 2.341769e-38
0.046664763 -0.072870888 1.2635558 2.2958513e-38
0.055223703 -0.072870895 1.2635555 2.2774481e-38
0.062990002 -0.074223027 1.2638334 2.1854327e-38
-0.083480239 -0.083477855 1.2642502 2.166597e-38
-0.077584282 -0.086004287 1.263 2.000645e-38
-0.01206012 -0.084406555 1.266125 2.1851449e-38
-0.0084199999 -0.080591433 1.263 2.3142183e-38
0.067600571 -0.085883997 1.263 1.806926e-38
0.074612148 -0.084753595 1.2676666 1.8438055e-38
0.082118094 -0.085740954 1.268 2.1114953e-38
-0.081552863 -0.094009362 1.2655001 2.0372716e-38
-0.077638566 -0.093328103 1.2671667 1.9270333e-38
-0.012054763 -0.095211424 1.2655001 1.9178147e-38
0.049317144 -0.099837147 1.263 8.5619406e-39
0.056025606 -0.096672378 1.2635555 1.4662726e-38
0.06483642 -0.093961105 1.2660769 1.7978131e-38
0.074872382 -0.090571426 1.268 1.8069623e-38
0.082118094 -0.090571426 1.268 2.0746894e-38
-0.011334477 -0.10489905 1.266 1.7701211e-38
-0.0078185713 -0.10705429 1.263 1.7516814e-38
0.046604924 -0.10686682 1.2655001 1.4661241e-38
0.055550486 -0.10454531 1.268 1.8441284e-38
0.06219238 -0.10204381 1.268 2.1112073e-38
-0.010868571 -0.11230858 1.268 1.7060136e-38
-0.0070548304 -0.11508939 1.2644286 1.8346933e-38
0.039694287 -0.11788 1.263 1.5120449e-38
0.045868695 -0.11587548 1.267375 1.5305206e-38
-0.083325714 -0.12921523 1.268 2.0372356e-38
-0.077287614 -0.12921523 1.268 1.8989766e-38
-0.0038885714 -0.12556095 1.2663332 1.8716074e-38
0.039213147 -0.12581886 1.263 1.4197736e-38
0.044883177 -0.12498856 1.2679999 1.4198465e-38
-0.08370728 -0.13441342 1.2633574 2.0838005e-38
-0.07782647 -0.13420591 1.2650001 1.9082318e-38
-0.0024146428 -0.13518846 1.267375 1.9545113e-38
0.0020047619 -0.1355219 1.263 1.8160748e-38
0.026517618 -0.13860238 1.2655001 1.1708097e-38
0.03390966 -0.13443375 1.2651429 1.2353126e-38
0.042266667 -0.13163048 1.268 1.3273281e-38
-0.082034864 -0.14217773 1.263 1.9917092e-38
-0.0018114285 -0.14310285 1.268 1.834693e-38
0.0048223129 -0.14467347 1.2658572 1.6224974e-38
0.015201715 -0.1440783 1.2670001 1.3366916e-38
0.021737143 -0.14129142 1.268 1.0324499e-38
-0.17027427 -0.15578286 1.268 1.7886304e-38
-0.16621333 -0.15617841 1.2646668 1.7331343e-38
-0.1561996 -0.15929267 1.263 1.8073196e-38
-0.14554572 -0.15998 1.263 1.355417e-38
-0.17027427 -0.16665143 1.268 1.7701561e-38
-0.16447772 -0.16447772 1.268 1.696364e-38
-0.15457523 -0.16544381 1.2679999 1.751752e-38
-0.14433268 -0.16546412 1.2653077 1.6499411e-38
-0.13499758 -0.16682704 1.2630002 1.7607925e-38
-0.12670097 -0.16759811 1.263 1.8624579e-38
-0.17027427 -0.17027427 1.268 1.7426408e-38
-0.16302857 -0.17268953 1.268 1.5766876e-38
-0.15430686 -0.17456803 1.2679999 1.5214791e-38
-0.14489819 -0.17510208 1.2661579 1.7795917e-38
-0.13536769 -0.17496946 1.2630002 1.9825663e-38
-0.12870573 -0.17321143 1.263 2.1389748e-38
-0.093265399 -0.17728826 1.2663333 1.8257244e-38
-0.15095238 -0.18235047 1.268 1.6581552e-38
-0.14394967 -0.18552652 1.2668461 1.444122e-38
-0.13523552 -0.1855837 1.2630002 1.4279174e-38
-0.10320516 -0.186924 1.263 1.8436933e-38
-0.095552631 -0.1859718 1.2666841 1.7953641e-38
0.062025718 0.34174952 1.2770001 2.1121803e-38
0.054514285 0.33798859 1.2720001 2.1574868e-38
0.06676428 0.3350043 1.2745001 2.0106213e-38
0.052193813 0.32287097 1.2745001 2.2591164e-38
0.06905143 0.32466286 1.2720001 1.9919671e-38
0.072363332 0.3241148 1.2770001 2.3417682e-38
0.056679375 0.31417531 1.2753336 2.1758518e-38
0.065820955 0.31376001 1.2720002 1.8622807e-38
0.075392134 0.31538007 1.2726668 2.2681564e-38
0.084840901 0.31525058 1.2752146 2.3325496e-38
0.094645187 0.31418088 1.275889 2.3142181e-38
0.10094381 0.31012857 1.2770001 2.1200305e-38
0.049863812 0.30161524 1.2770001 1.9083806e-38
0.056439366 0.30486971 1.2745003 1.9637678e-38
0.064897954 0.30562612 1.2720002 1.8623528e-38
0.086280636 0.30649143 1.2720002 2.2034758e-38
0.094840236 0.305345 1.2737647 2.1666332e-38
0.10094381 0.30283144 1.2770001 2.0187603e-38
0.049053021 0.29350734 1.2770001 1.8069633e-38
0.055738516 0.29566032 1.2723125 1.8438411e-38
0.065174855 0.29550785 1.2720002 1.7885949e-38
0.072685719 0.29195431 1.2720001 1.6783203e-38
0.086920001 0.29468003 1.2720002 1.8715364e-38
0.094639316 0.2948235 1.2739445 1.9546906e-38
0.049863812 0.28823715 1.2770001 1.7608293e-38
0.056007221 0.28540841 1.2741053 1.7331699e-38
0.065217651 0.28560552 1.2722942 1.7516084e-38
0.075108573 0.28589717 1.2720001 1.733277e-38
0.085126616 0.28540799 1.2728335 1.8069627e-38
0.09354841 0.28593838 1.2756367 1.8991575e-38
0.059593335 0.27850762 1.2770001 1.7054367e-38
0.066285901 0.27591854 1.2741877 1.8161457e-38
0.075122625 0.27504742 1.2722499 2.0189763e-38
0.084664404 0.27487525 1.2739445 2.2033675e-38
0.092673719 0.27315637 1.2770001 2.2957057e-38
0.068836384 0.26585925 1.2770001 2.0377394e-38
0.075178817 0.26435098 1.2732502 2.2312421e-38
0.084821731 0.26415724 1.2723125 2.2957434e-38
0.094607793 0.26441973 1.2735626 2.3141819e-38
0.10054857 0.26166859 1.2720001 2.304993e-38
-0.042400002 0.25197715 1.2720001 2.2893651e-38
-0.03760032 0.25109434 1.2736669 2.3191858e-38
0.069322854 0.25296763 1.2770001 2.2405704e-38
0.075178817 0.25465 1.2732501 2.2865595e-38
0.084799998 0.25440001 1.2720001 2.3233659e-38
0.09449143 0.25440004 1.2720001 2.341769e-38
0.10225482 0.25421524 1.2731113 2.2496793e-38
-0.032769687 0.24640334 1.2745001 2.2948077e-38
-0.026728813 0.24360929 1.27575 2.341769e-38
0.067863427 0.24348135 1.2770001 2.1300067e-38
0.075178817 0.24494903 1.2732501 2.2680845e-38
0.084800005 0.24470855 1.2720001 2.3048549e-38
0.094491422 0.24470855 1.2720001 2.3325494e-38
0.10256539 0.24607587 1.2770001 2.3417684e-38
-0.15263973 0.23476057 1.2734287 4.2569429e-39
-0.14900573 0.23865144 1.2720001 1.2367653e-38
-0.023528857 0.23675232 1.2735003 2.341769e-38
-0.015056328 0.23449798 1.2720002 2.1297914e-38
-0.0084800003 0.23138286 1.2720001 1.2531791e-38
0.066404 0.23594096 1.2770002 1.7066648e-38
0.075161256 0.23519126 1.2729377 2.1205362e-38
0.084800005 0.23501714 1.2720001 2.2126955e-38
0.09449143 0.23501712 1.2720001 2.2773044e-38
0.1044177 0.23553768 1.2748126 2.3234016e-38
0.11067334 0.23715715 1.2770001 2.3317193e-38
-0.15227221 0.22658686 1.2750001 8.4978845e-39
-0.013325716 0.22653715 1.2720001 2.0938113e-38
0.065674298 0.22791412 1.2770002 1.1173719e-38
0.075328328 0.22477122 1.2757503 1.7242753e-38
0.08455772 0.22524495 1.2720002 1.9638043e-38
0.095460586 0.2241143 1.2720002 2.1757817e-38
0.10423585 0.22543764 1.272625 2.2864875e-38
0.11067334 0.22499526 1.2770002 2.3417306e-38
0.077228099 0.21404953 1.2770001 1.5305165e-38
0.084680624 0.21552421 1.2734706 1.2724091e-38
0.09449143 0.21563429 1.2720001 1.4109208e-38
0.10427387 0.21514542 1.2731111 1.5215205e-38
0.110565 0.21626642 1.27575 1.8718969e-38
-0.021805715 0.20230858 1.2720001 1.7977788e-38
-0.014294858 0.20327774 1.2720002 1.7794108e-38
0.076245792 0.20422645 1.2770002 2.1758522e-38
0.085106112 0.20586157 1.2730001 1.7329124e-38
0.094679058 0.20512906 1.2745001 1.2811933e-38
0.10409599 0.20751527 1.275889 1.0422798e-38
0.11024 0.20957716 1.2720001 8.6696977e-39
-0.022657586 0.19478229 1.2727696 1.7700838e-38
-0.014977462 0.19514255 1.2753335 1.7056539e-38
0.069322854 0.19580668 1.2770001 2.2036905e-38
0.075345777 0.19444673 1.2760626 2.0100085e-38
0.08498501 0.19545642 1.2747501 1.8531679e-38
0.093038574 0.19763096 1.2770001 1.8250751e-38
-0.030285714 0.18050288 1.2720001 1.8162168e-38
-0.02440537 0.18499568 1.2756367 1.8163247e-38
-0.014344701 0.18500958 1.2763336 1.5213005e-38
-0.0085133333 0.18729335 1.2770001 9.0387941e-39
0.075890288 0.18632038 1.2770002 1.8531316e-38
0.083309054 0.18790144 1.2770001 1.7241304e-38
-0.14837524 0.17634763 1.2770001 4.8133019e-39
-0.030285714 0.17444572 1.2720001 1.4296083e-38
-0.026279368 0.17629114 1.2736667 1.3837639e-38
-0.010902858 0.17808001 1.2720001 2.2318579e-39
-0.19140573 0.16233143 1.2720001 1.4811509e-38
-0.18292573 0.16636956 1.2720002 1.5823032e-38
-0.17686859 0.16838859 1.2720001 1.7563621e-38
-0.035131428 0.16838859 1.2720001 4.7178763e-39
-0.19504002 0.15869716 1.2720001 1.814123e-38
-0.11024 0.15385143 1.2720001 2.6783634e-39
-0.10297143 0.15385143 1.2720001 5.5650186e-40
-0.096914291 0.15385143 1.2720001 1.3880842e-39
-0.084879763 0.15218312 1.2732501 7.2841806e-39
-0.074835986 0.15330835 1.2742224 7.4675125e-39
-0.065935239 0.15492678 1.2742223 9.0287103e-39
-0.055806071 0.15407585 1.2738751 5.1543611e-39
-0.13204572 0.14900573 1.2720001 2.0096065e-38
-0.12650776 0.14450613 1.2720002 2.0098235e-38
-0.11553811 0.14229432 1.2770002 1.6504765e-38
-0.10824096 0.14715905 1.2770001 6.3506748e-39
-0.086349532 0.14959145 1.2770001 7.5614556e-39
-0.075809211 0.14310509 1.2770002 1.4745855e-38
-0.11422067 0.13637209 1.2741877 2.2126207e-38
-0.10413715 0.13431895 1.2731112 2.2956702e-38
-0.09467715 0.13716286 1.2745001 2.1574485e-38
-0.085022233 0.13725334 1.2753335 2.1758512e-38
-0.075643599 0.13794245 1.2742224 2.1667384e-38
-0.065544933 0.13716207 1.2745001 2.2497163e-38
-0.055571049 0.13516839 1.2740003 2.3325854e-38
-0.045257863 0.13517024 1.2757502 2.341769e-38
-0.035624128 0.13239175 1.2753334 2.341769e-38
-0.027972383 0.13013239 1.2770001 2.341769e-38
-0.20230858 0.12356572 1.2720001 1.3934522e-38
-0.03270857 0.12841144 1.2720001 2.341769e-38
-0.023513019 0.12242984 1.2770001 2.341769e-38
-0.20439479 0.11503065 1.273667 1.9275005e-38
-0.1994819 0.1142781 1.2720002 2.3417684e-38
-0.023046512 0.11402746 1.2736669 2.3232939e-38
-0.016842723 0.11304381 1.2762858 2.2864879e-38
-0.20432001 0.10459238 1.2770001 2.32333e-38
-0.19806857 0.10478857 1.2720001 2.240426e-38
-0.022108572 0.10478859 1.2720002 2.1007668e-38
-0.014806097 0.10464357 1.2746668 2.1203917e-38
-0.20432 0.094862863 1.2770001 2.1573427e-38
-0.19746287 0.098125719 1.2720001 2.0377395e-38
-0.18413715 0.090857148 1.2720001 1.7424247e-38
-0.17565715 0.090857148 1.2720001 1.6499772e-38
-0.14565955 0.093460962 1.2745003 8.4935418e-39
-0.13931429 0.090857148 1.2720001 1.4106273e-38
-0.021401905 0.094895244 1.2720001 1.7744081e-38
-0.015400002 0.094942428 1.2743078 1.9442856e-38
-0.20472541 0.08472795 1.2770001 1.9361449e-38
-0.19867429 0.082377151 1.2720001 1.853169e-38
-0.18260235 0.083917156 1.2770001 1.7055463e-38
-0.1756299 0.084401913 1.2758464 1.7144777e-38
-0.16717716 0.082377151 1.2720001 1.1433706e-38
-0.14503074 0.087261662 1.2770001 6.4659681e-39
-0.13850668 0.083992384 1.2720002 1.2820607e-38
-0.020594286 0.082377151 1.2720001 1.1399127e-38
-0.016256003 0.08444877 1.2740002 1.7109858e-38
-0.20422646 0.07568448 1.2770002 1.8348011e-38
-0.19561264 0.075934529 1.2757502 1.7794115e-38
-0.18495452 0.076245792 1.2770002 1.7147653e-38
-0.17413534 0.077493452 1.2763751 1.6871779e-38
-0.16728747 0.076368421 1.2728333 1.1063502e-38
-0.13576059 0.075772189 1.2750002 1.3561409e-38
-0.12962286 0.071474291 1.2720001 1.6781355e-38
-0.022796884 0.075438969 1.2720003 1.6091336e-38
-0.015227181 0.074658096 1.2754617 1.7568646e-38
-0.0085133333 0.071755238 1.2770001 9.2943993e-39
-0.18607715 0.069322854 1.2770001 1.6870368e-38
-0.13328907 0.065223657 1.2761667 6.9201065e-39
-0.12881526 0.064609528 1.2720002 1.2713652e-38
-0.023302339 0.065932818 1.2756367 1.7476054e-38
-0.018242858 0.069322854 1.2770001 1.7936353e-38
-0.13165262 0.056856904 1.2770001 9.2092214e-40
-0.12463078 0.055542864 1.2743078 8.1996377e-39
-0.11799315 0.054029714 1.2720002 1.5178042e-38
-0.031254858 0.054029714 1.2720002 1.6672608e-38
-0.027420193 0.056540191 1.274 1.6745696e-38
-0.12161905 0.049863812 1.2770001 6.1735451e-39
-0.11381105 0.046833526 1.274 1.5568048e-38
-0.10634001 0.041644767 1.2736669 1.6779938e-38
-0.042076349 0.042076357 1.2745001 1.7793381e-38
-0.035203289 0.047346156 1.2747275 1.8070328e-38
-0.1019608 0.037624925 1.2745001 1.6870728e-38
-0.094671443 0.033668648 1.2731541 1.677924e-38
-0.08462695 0.031324085 1.2720002 1.7331345e-38
-0.074935518 0.031324085 1.2720002 1.7149468e-38
-0.064934015 0.031341091 1.2727145 1.7611155e-38
-0.055013247 0.03274104 1.2733638 1.7610079e-38
-0.047359273 0.036333188 1.2750771 1.7518242e-38
-0.092430472 0.027972383 1.2770001 1.6594504e-38
-0.085376576 0.027485907 1.2770001 1.742282e-38
-0.075577557 0.026929934 1.2770001 1.7055833e-38
-0.06567429 0.026756193 1.2770001 1.7056185e-38
-0.05667448 0.027485907 1.2770001 1.7238784e-38
-0.13256477 -0.059593335 1.2770001 2.341769e-38
-0.1256796 -0.058417551 1.274143 2.341769e-38
-0.11508572 -0.056937147 1.2720002 2.341769e-38
-0.10438524 -0.058262859 1.2745001 2.341769e-38
-0.010945715 -0.058377147 1.2770001 2.341769e-38
-0.0048592063 -0.057047468 1.2745004 2.341769e-38
0.0048504765 -0.055776902 1.2732501 2.341769e-38
0.014244418 -0.057298105 1.2751821 2.341769e-38
0.023918416 -0.058782544 1.2770001 2.341769e-38
0.030404763 -0.059593335 1.2770001 2.341769e-38
0.043736428 -0.059535 1.2757502 2.3417684e-38
-0.15415621 -0.067973331 1.2745 2.1946163e-38
-0.14686859 -0.064935245 1.2745 2.341769e-38
-0.13446857 -0.061782859 1.2720001 2.341769e-38
-0.093683824 -0.064609528 1.2720002 2.341769e-38
-0.088608101 -0.067970954 1.2745001 2.3415881e-38
-0.012812701 -0.066475764 1.2742224 2.3233659e-38
-0.005787937 -0.063667305 1.2720002 2.341769e-38
0.0055725719 -0.06226743 1.2720002 2.341769e-38
0.015056328 -0.062821232 1.2720002 2.341769e-38
0.024228573 -0.062994286 1.2720002 2.341769e-38
0.035367858 -0.064064525 1.2732503 2.341769e-38
0.044630572 -0.063551717 1.2735002 2.3325854e-38
0.059360001 -0.065417141 1.2720001 2.3233995e-38
0.061782859 -0.066628575 1.2720001 2.3234005e-38
-0.15824738 -0.073361672 1.2732501 2.1853247e-38
-0.085663974 -0.075560793 1.2728336 2.1942198e-38
-0.015553422 -0.075546324 1.2738184 2.2127677e-38
-0.21283336 -0.087808959 1.2770001 2.277376e-38
-0.02067524 -0.086349532 1.2770002 1.8899398e-38
-0.016977858 -0.084882155 1.2732502 2.0192653e-38
0.082377151 -0.086011432 1.2720001 2.1114952e-38
-0.21404953 -0.093038574 1.2770001 1.8626058e-38
-0.02067524 -0.092430472 1.2770001 1.8255462e-38
-0.016986787 -0.094632499 1.2738751 1.8256542e-38
0.06905143 -0.096914291 1.2720001 1.7794796e-38
0.075206995 -0.095831439 1.273667 1.7978502e-38
0.082988843 -0.095813081 1.2734287 2.0467431e-38
-0.015994806 -0.10466217 1.2738184 1.7332435e-38
0.059360001 -0.10781715 1.2720001 2.157774e-38
0.066471905 -0.10485684 1.2728336 2.1573762e-38
0.073214673 -0.10240324 1.2770001 1.9635853e-38
-0.013347739 -0.11404155 1.2738751 1.8899357e-38
-0.0084800003 -0.11993144 1.2720001 1.8808267e-38
0.055789478 -0.11534076 1.272 1.6964729e-38
0.065208249 -0.11464678 1.2731111 1.9083418e-38
0.071755238 -0.11675429 1.2770001 1.8528441e-38
-0.084516875 -0.12547225 1.2755716 2.0374871e-38
-0.077836193 -0.1277 1.2770001 1.9175239e-38
-0.010945715 -0.12405143 1.2770001 1.9636592e-38
-0.0079954294 -0.12671544 1.2720002 1.954295e-38
0.049062863 -0.12780572 1.2720001 1.4014061e-38
0.055483434 -0.12574628 1.2720002 1.6043462e-38
0.065409295 -0.1249431 1.2757502 1.899157e-38
0.071755238 -0.1277 1.2770001 2.0007528e-38
-0.010945715 -0.13499716 1.2770001 1.7614762e-38
-0.0072810715 -0.1358806 1.2738751 1.9549071e-38
0.036614668 -0.13651447 1.2730001 1.1523383e-38
0.044926669 -0.13381657 1.2750001 1.2904136e-38
0.05667448 -0.1320783 1.2770001 1.7426056e-38
0.066079691 -0.13013241 1.2770002 2.0560703e-38
-0.010945715 -0.1422943 1.2770001 1.4386836e-38
-0.0056278794 -0.14590962 1.2738184 1.5031848e-38
0.0012114287 -0.14900573 1.2720001 1.5496452e-38
0.015356669 -0.14829573 1.2728336 1.5763638e-38
0.023957491 -0.14562798 1.2751821 1.419847e-38
0.030285714 -0.14173715 1.2720001 1.1897182e-38
-0.17340453 -0.15582214 1.2732501 1.8070341e-38
-0.0029529254 -0.15402369 1.2762859 1.0508088e-38
0.0048520635 -0.15405619 1.2736669 1.3463428e-38
0.014240001 -0.15523987 1.2762859 1.7148751e-38
0.02067524 -0.15567239 1.2770001 1.8069278e-38
-0.17081143 -0.16233143 1.2720001 1.8344757e-38
0.015810477 -0.16175334 1.2770001 1.0605764e-38
0.02067524 -0.16175334 1.2770001 1.6513094e-38
-0.090857148 -0.17808001 1.2720001 1.9639505e-38
-0.088086903 -0.17678548 1.2757502 2.0285554e-38
-0.16154224 -0.18340826 1.2753334 1.4196318e-38
-0.15595363 -0.18507041 1.2739233 1.4836291e-38
-0.14900573 -0.18656 1.2720001 1.5341235e-38
-0.090857148 -0.1817143 1.2720001 2.0365185e-38
-0.08459083 -0.18428677 1.2738184 1.7750235e-38
0.057608575 0.38119715 1.2870001 9.2516471e-39
0.066188574 0.38119715 1.2870001 2.1574507e-38
0.057608575 0.3738429 1.2870001 3.895003e-39
0.064962864 0.37506852 1.2870002 1.6508809e-38
0.074312389 0.37502691 1.2861667 2.0929128e-38
0.055429533 0.36458191 1.2870001 9.8721785e-39
0.064962856 0.36526281 1.2870002 1.4026022e-38
0.073542863 0.36894003 1.2870001 2.1948318e-38
0.055157147 0.35913429 1.2870001 1.1895799e-38
0.065507628 0.3554571 1.2870002 1.4112107e-38
0.075585708 0.35395902 1.2870001 2.2129111e-38
0.054219052 0.34561932 1.2855715 2.2220583e-38
0.06630756 0.34624159 1.2859286 2.1394414e-38
0.074768573 0.34565145 1.2869999 2.1387584e-38
0.047802858 0.33584571 1.2870001 1.8896542e-38
0.050625529 0.33579543 1.2840002 2.0190149e-38
0.068373337 0.33698288 1.2820001 1.9365428e-38
0.074721746 0.33562982 1.2861667 2.3325853e-38
0.050625529 0.32454556 1.2840002 2.1300796e-38
0.076664604 0.32663003 1.2845001 2.3417689e-38
0.086095884 0.3235797 1.2853334 2.341769e-38
0.095892072 0.3235797 1.2853333 2.3325854e-38
0.10173429 0.32358858 1.2870001 2.2583553e-38
0.051252808 0.31500736 1.2847778 2.1757444e-38
0.095641278 0.31785461 1.2820001 2.3417689e-38
0.046294864 0.30300647 1.2860001 1.9175276e-38
0.051280003 0.30768001 1.2820001 2.0743678e-38
0.10133906 0.30564511 1.2820001 2.0462382e-38
0.044543624 0.29493526 1.285 1.5954181e-38
0.10133905 0.29547048 1.2820001 1.8251125e-38
0.04686036 0.28545037 1.286375 1.420284e-38
0.050625529 0.2834549 1.2840002 1.6413696e-38
0.096862227 0.28366798 1.2820001 1.816541e-38
0.10215303 0.28855178 1.2820001 1.3096123e-38
0.047802858 0.27415144 1.2870001 3.984651e-39
0.054616496 0.27530777 1.2853334 1.3742932e-38
0.061873525 0.27269527 1.2840002 1.7702647e-38
0.09564127 0.27742749 1.2820001 2.1481185e-38
0.047802858 0.26843145 1.2870001 6.65326e-39
0.05540229 0.26548973 1.2870001 9.8779547e-39
0.063950934 0.26477027 1.2848947 1.9180301e-38
-0.031337783 0.2519232 1.2820001 2.341762e-38
-0.028081907 0.25029525 1.2820001 2.341769e-38
0.056382861 0.25494859 1.2870001 7.0213545e-39
0.064301699 0.25450888 1.2847778 1.9550524e-38
-0.025029521 0.24541143 1.2820001 2.341769e-38
0.058051191 0.24504262 1.2832501 4.5360592e-39
0.063020267 0.2455375 1.2838182 1.6328014e-38
0.10744382 0.24541144 1.2820001 2.176067e-38
0.11208344 0.24248114 1.2820001 1.7509286e-38
-0.16056858 0.23166001 1.2870001 7.4805138e-39
-0.15847962 0.23369031 1.2820001 6.2862768e-39
0.063271791 0.23629372 1.283875 1.1536021e-38
0.11171714 0.23442288 1.2820001 2.1297161e-38
-0.16056858 0.22798286 1.2870001 8.4989705e-39
-0.15628152 0.22671695 1.2840002 8.4971726e-39
0.067501232 0.22273661 1.2820002 1.2269618e-38
0.066976704 0.2154347 1.2858461 2.1851802e-38
0.073867626 0.21488762 1.2820001 2.0832531e-38
0.064922146 0.20580073 1.2862502 2.3233659e-38
0.072036192 0.20552699 1.2820001 2.2957069e-38
0.10266119 0.20287453 1.2832501 1.1621687e-38
0.057608575 0.19243714 1.2870001 2.3325853e-38
0.064606823 0.19576931 1.2851579 2.2680124e-38
0.095909052 0.19446032 1.2828333 1.7240925e-38
-0.15017715 0.18192191 1.2820001 7.8410665e-39
-0.14773524 0.18192191 1.2820001 1.2743197e-38
-0.021570159 0.18273589 1.2820001 1.8809335e-38
-0.018314287 0.18192191 1.2820001 1.6970115e-38
0.056246672 0.18372099 1.2870001 2.1574139e-38
0.064702436 0.18513697 1.2859585 2.000681e-38
0.074885085 0.18314287 1.2820001 1.8070336e-38
0.086028986 0.18351485 1.2835623 1.760936e-38
0.09332706 0.18591583 1.286 1.613496e-38
-0.15017715 0.17948 1.2820001 6.3673447e-39
-0.021570159 0.17866604 1.2820001 1.5310612e-38
-0.015872382 0.17825906 1.2820001 9.4079746e-39
0.054779999 0.17376858 1.2869999 1.9730588e-38
0.065096565 0.17408209 1.2850953 1.8346562e-38
0.075640723 0.17581576 1.2846472 1.7331694e-38
0.085274704 0.17667797 1.2870002 1.7241651e-38
0.054176573 0.16449086 1.2870001 1.8532045e-38
0.064554296 0.1646543 1.2870002 1.7332051e-38
0.072317146 0.16669714 1.2870001 1.6963985e-38
-0.11110667 0.15139811 1.2820001 7.4116918e-40
-0.10505132 0.15147132 1.282625 4.6495363e-40
-0.095282502 0.15147132 1.282625 3.9683736e-39
-0.086077146 0.15078762 1.2820001 7.5610996e-39
-0.075699054 0.15017715 1.2820001 8.3887163e-39
-0.065442868 0.15130734 1.2827144 9.2173812e-39
-0.055300478 0.15123931 1.28325 1.0135738e-38
-0.045260161 0.15169255 1.2845001 8.9350349e-39
0.052705716 0.15811715 1.2870001 1.8254731e-38
0.060060002 0.15811715 1.2870001 1.7239134e-38
-0.11235714 0.14504287 1.2870001 1.2627528e-38
-0.10494788 0.1440939 1.2843332 1.4655103e-38
-0.095638238 0.14467727 1.2827142 1.4100479e-38
-0.085466675 0.14529334 1.2819999 1.2161513e-38
-0.075563394 0.14583598 1.2820001 1.179132e-38
-0.065704063 0.14435436 1.2823333 1.6128445e-38
-0.055018336 0.14427166 1.2837499 1.8712445e-38
-0.044562928 0.14400755 1.2845 2.0191178e-38
-0.034728575 0.14259143 1.2870001 2.2404244e-38
-0.026965717 0.14279571 1.2870001 2.2404972e-38
-0.013973144 0.14316343 1.2870001 2.3141463e-38
-0.0085800011 0.14218286 1.2870001 2.2773397e-38
-0.10744382 0.13796763 1.2820001 2.1573045e-38
-0.043547302 0.13796763 1.2820001 2.341769e-38
-0.033285838 0.1365087 1.2826251 2.341769e-38
-0.02424724 0.13496801 1.2860003 2.341769e-38
-0.014708572 0.13482857 1.2870001 2.3048907e-38
-0.0080897156 0.13409315 1.2870001 2.148122e-38
0.018385714 0.13115142 1.2870001 2.3417684e-38
0.023288574 0.13115142 1.2870001 2.2957057e-38
-0.023198096 0.12697905 1.2820001 2.341769e-38
-0.014687442 0.12487317 1.2854376 2.3325133e-38
-0.0056828572 0.12491144 1.2870001 2.0282318e-38
0.0050390479 0.12298 1.2870001 1.8623883e-38
0.014991429 0.1241743 1.2869999 1.6568974e-38
0.024514288 0.12502287 1.2870001 1.5538255e-38
0.033502862 0.12420572 1.2869999 1.5833211e-38
0.043308571 0.12216286 1.2870002 1.5675421e-38
-0.21122476 0.11110667 1.2820001 1.3653245e-38
-0.20878287 0.11110667 1.2820001 1.8544642e-38
-0.012912698 0.11596942 1.2847778 2.2956708e-38
-0.0055838102 0.11562572 1.2870001 1.9360722e-38
0.0049028574 0.11521714 1.2870001 1.6493633e-38
0.014708571 0.11521715 1.2870001 1.4988936e-38
0.02423143 0.11606572 1.2869999 1.5174028e-38
0.033911429 0.11726001 1.2870001 1.4712036e-38
0.043425191 0.11612022 1.2864444 1.7238429e-38
-0.2145551 0.10449796 1.2839231 1.1993765e-38
-0.20878287 0.10500191 1.2820001 2.1947605e-38
-0.010988572 0.10133905 1.2820001 2.0370558e-38
-0.0085716676 0.10531262 1.28575 1.9452563e-38
0.0085800011 0.10908858 1.2870001 1.4805326e-38
0.015934285 0.10908858 1.2870001 1.535699e-38
-0.22185428 0.091928571 1.2870001 2.8718491e-39
-0.2154156 0.095466435 1.285125 1.6602091e-38
-0.20878287 0.09523429 1.2820001 2.2312789e-38
-0.010988573 0.094013333 1.2820001 2.0097559e-38
-0.0085800011 0.095605716 1.2870001 1.8900822e-38
-0.22338645 0.086106434 1.2870001 5.7251969e-39
-0.21531142 0.085633337 1.2845 1.8815115e-38
-0.20878288 0.086687624 1.2820001 2.0376678e-38
-0.14578173 0.082780577 1.2820001 5.1755852e-39
-0.011816826 0.086394928 1.2836668 1.8983989e-38
-0.0085800011 0.085800007 1.2870001 1.6690628e-38
-0.22185428 0.07599429 1.2870001 1.2548369e-38
-0.21515341 0.075792216 1.2835624 1.8443099e-38
-0.20756191 0.072036192 1.2820001 1.8071778e-38
-0.19352096 0.073867619 1.2820001 1.742497e-38
-0.18517779 0.072036192 1.2820001 1.6963273e-38
-0.17673285 0.073562384 1.2820001 1.6503723e-38
-0.16971239 0.072036192 1.2820001 1.2447518e-38
-0.14416745 0.076139398 1.2838181 4.3472875e-39
-0.13796763 0.073257148 1.2820001 9.7842961e-39
-0.011802541 0.07854794 1.2820001 1.7852799e-38
-0.0075946674 0.075692952 1.2860001 6.7223482e-39
-0.22185428 0.064962856 1.2870001 1.5500377e-38
-0.21548165 0.065084562 1.2843684 1.7980674e-38
-0.20512003 0.065931424 1.2819998 1.788631e-38
-0.19535236 0.065931424 1.2819998 1.7148747e-38
-0.1850213 0.065025225 1.2825881 1.6779599e-38
-0.17602818 0.066010892 1.2835624 1.5950894e-38
-0.16971239 0.068373337 1.2820001 9.1317352e-39
-0.1411593 0.067830712 1.2832501 1.3923049e-39
-0.13715367 0.06633842 1.2820001 3.0475579e-39
-0.020756191 0.062268574 1.2820001 1.8217613e-38
-0.014482207 0.064554691 1.2841051 1.3069436e-38
-0.0081507936 0.065603815 1.2836668 3.4919083e-39
-0.21368217 0.055378955 1.2865 1.7609728e-38
-0.20544098 0.055023815 1.284 1.7057271e-38
-0.19558093 0.05500238 1.2835 1.6872521e-38
-0.18596169 0.05549559 1.2859476 1.6871066e-38
-0.17616001 0.058717623 1.2845001 1.5306607e-38
-0.13796763 0.059826672 1.2820001 5.5209198e-40
-0.12697905 0.05005905 1.2820001 1.6559144e-39
-0.023395812 0.054372326 1.2839999 1.5466133e-38
-0.016284492 0.055507354 1.2870002 7.8168254e-39
-0.0085800011 0.057608575 1.2870001 1.5655194e-39
-0.20592001 0.047802858 1.2870001 1.6872875e-38
-0.19693145 0.046985716 1.2870002 1.6871436e-38
-0.1238698 0.046295926 1.284143 1.7503017e-39
-0.11554965 0.044016786 1.2838751 1.2449637e-38
-0.10866477 0.040291432 1.2820001 1.6781408e-38
-0.033454098 0.042489145 1.2819999 1.8623854e-38
-0.024748063 0.044893708 1.2846922 1.5115011e-38
-0.018385714 0.047802858 1.2870001 7.3580249e-39
-0.11154 0.036771432 1.2870001 1.5861594e-38
-0.105328 0.033722099 1.2829999 1.6779616e-38
-0.098897144 0.030523812 1.2820001 1.6688851e-38
-0.042781431 0.033002384 1.2835 1.7978137e-38
-0.035519745 0.035073161 1.286091 1.8623506e-38
-0.10418572 0.02819143 1.2870001 1.6320443e-38
-0.095422387 0.02446508 1.2844999 1.6963284e-38
-0.085387275 0.022983462 1.2824545 1.6873237e-38
-0.075563386 0.022384126 1.2820001 1.6778877e-38
-0.065931432 0.021977143 1.2820001 1.6685593e-38
-0.05431772 0.02337232 1.2826667 1.7332407e-38
-0.045560386 0.025227813 1.286 1.8068537e-38
-0.092745721 0.017568571 1.2870001 1.7425327e-38
-0.085800007 0.01470857 1.2870001 1.8254735e-38
-0.075904705 0.014688035 1.2854375 1.9084847e-38
-0.06484881 0.014679763 1.2847501 2.0190837e-38
-0.054176573 0.014953716 1.2870001 2.046706e-38
-0.084574282 0.0045685717 1.2870001 2.0374513e-38
-0.075994283 0.0049028578 1.2870001 2.1297196e-38
-0.065169781 0.0050923815 1.2859476 2.2035476e-38
-0.05427821 0.0046862755 1.2867061 2.2310984e-38
-0.091928571 -0.005311429 1.2870001 1.9086299e-38
-0.085800007 -0.0049028574 1.2870001 2.0838732e-38
-0.075941011 -0.0048972028 1.2860626 2.2220233e-38
-0.065071285 -0.0049550873 1.2841051 2.2498256e-38
-0.054251879 -0.004826555 1.2861178 2.2864876e-38
-0.045596574 -0.0056382865 1.2870001 2.0653273e-38
-0.09290915 -0.012992571 1.2870001 1.6687772e-38
-0.085800007 -0.01470857 1.2870001 1.6873249e-38
-0.075776428 -0.014665714 1.28325 1.8347303e-38
-0.065293074 -0.014796878 1.2828332 1.9546201e-38
-0.054561585 -0.014559154 1.2858891 1.9361078e-38
-0.046270721 -0.013789284 1.2870001 1.8807901e-38
-0.084778577 -0.023901431 1.2869999 1.2543673e-38
-0.075867802 -0.024475299 1.2848126 1.7149472e-38
-0.065085068 -0.024531679 1.2843683 1.7518614e-38
-0.054278206 -0.024436867 1.286706 1.8069978e-38
-0.047802858 -0.023288572 1.2870001 1.7795913e-38
-0.074496187 -0.033094291 1.2870001 1.5952369e-38
-0.064962864 -0.034320004 1.2870002 1.6596288e-38
-0.055770002 -0.031255715 1.2870001 1.7240572e-38
-0.21572572 -0.047802858 1.2870001 2.3136421e-38
-0.20837143 -0.047802858 1.2870001 2.341769e-38
-0.067414291 -0.040448572 1.2870001 1.631898e-38
-0.22308002 -0.053931426 1.2870001 1.9480324e-38
-0.21526918 -0.054561589 1.285889 2.2765124e-38
-0.20581704 -0.054815639 1.285158 2.341769e-38
-0.1979202 -0.055356573 1.286 2.341769e-38
-0.13115142 -0.057608575 1.2870001 2.341769e-38
-0.12364 -0.055085715 1.2853334 2.341769e-38
-0.11599048 -0.054942857 1.2820001 2.3417689e-38
-0.10418572 -0.057608575 1.2870001 2.341769e-38
-0.012235714 -0.056275718 1.2845001 2.341769e-38
-0.0012209525 -0.052500956 1.2820001 2.341769e-38
0.0048885713 -0.050156668 1.2845001 2.341769e-38
0.01468 -0.051989287 1.2845 2.341769e-38
0.024731336 -0.054600667 1.2854999 2.341769e-38
0.035027273 -0.057038188 1.2842728 2.341769e-38
0.041512385 -0.057384763 1.2820001 2.341769e-38
-0.22446914 -0.06561657 1.2870001 1.8191001e-38
-0.21544148 -0.065334074 1.2836665 2.1933198e-38
-0.20495081 -0.065586045 1.282294 2.341769e-38
-0.19637989 -0.065358214 1.2857502 2.3325492e-38
-0.15506096 -0.064710483 1.2820001 2.1213627e-38
-0.094013333 -0.062268578 1.2820001 2.341769e-38
-0.085713103 -0.068576902 1.28575 2.1571611e-38
-0.021654289 -0.069048576 1.2870001 2.0928778e-38
-0.016208572 -0.063915007 1.2845 2.2957434e-38
-0.23166001 -0.078445718 1.2870001 1.72737e-38
-0.22498794 -0.07580857 1.283875 1.737132e-38
-0.21488762 -0.075699061 1.2819998 2.2493571e-38
-0.20512004 -0.075699054 1.2819998 2.3417689e-38
-0.19735117 -0.075579911 1.2856364 2.2311341e-38
-0.083686136 -0.074251026 1.284143 2.0743292e-38
-0.079671435 -0.074768573 1.2870001 1.982098e-38
-0.03064286 -0.077220008 1.2870001 1.8072143e-38
-0.024416381 -0.076179422 1.2860001 1.9546195e-38
-0.018314287 -0.072036192 1.2820001 2.1574505e-38
-0.23166001 -0.085800007 1.2870001 1.6293396e-38
-0.22487782 -0.085549995 1.28325 1.9444628e-38
-0.2154426 -0.084245719 1.2819999 2.3141465e-38
-0.20512004 -0.085466668 1.2819998 2.2035116e-38
-0.19856572 -0.085800007 1.2870001 1.7608305e-38
-0.025039395 -0.08467593 1.2851818 1.8440569e-38
-0.2321503 -0.095850863 1.2870001 1.8901192e-38
-0.22487783 -0.095327146 1.2832499 1.9086669e-38
-0.21499059 -0.09711393 1.282625 1.4385069e-38
-0.2062521 -0.093954384 1.2845 1.6499443e-38
-0.19979143 -0.091928571 1.2870001 1.5947675e-38
-0.022444446 -0.096295878 1.2853335 1.7704078e-38
-0.23349857 -0.10234714 1.2870001 1.8716436e-38
-0.22504121 -0.10518375 1.2841876 1.6224636e-38
-0.21703546 -0.10437027 1.2858889 1.5207589e-38
-0.021853065 -0.10471266 1.2848573 1.7516088e-38
0.07669802 -0.10600089 1.2819999 1.9083419e-38
0.084245719 -0.10622287 1.2819999 2.0005736e-38
0.092792377 -0.10866477 1.2820001 1.9912104e-38
-0.22430572 -0.11154 1.2870001 1.9822786e-38
-0.21940286 -0.11154 1.2870001 1.9914266e-38
-0.085800007 -0.11889429 1.2870001 2.092696e-38
-0.020837147 -0.11399143 1.2870001 2.037774e-38
-0.017524129 -0.11573588 1.2836668 2.0837625e-38
0.076331496 -0.11457816 1.2837856 1.9175976e-38
0.085061975 -0.11445715 1.2858461 1.9730584e-38
0.091571428 -0.11110667 1.2820001 2.0007168e-38
-0.08333277 -0.12243372 1.2830001 2.1113524e-38
-0.07905858 -0.12441 1.2870001 2.0925516e-38
-0.015916826 -0.12486096 1.2853334 1.9087385e-38
0.069594286 -0.12209524 1.2820001 1.8348019e-38
0.075464189 -0.12395369 1.2827692 1.9913882e-38
-0.015093865 -0.13418719 1.2847778 1.6136051e-38
0.045219287 -0.1368812 1.2832501 1.2904113e-38
0.05393143 -0.13605429 1.2870001 1.6409721e-38
0.065109178 -0.13389251 1.283875 2.0650026e-38
0.072943807 -0.1316289 1.2836668 2.0283036e-38
-0.012625239 -0.1449824 1.2828335 1.4937114e-38
0.028081907 -0.14773524 1.2820001 1.6037345e-38
0.034919929 -0.14503568 1.2846922 1.4933521e-38
0.040370002 -0.14190906 1.2845001 1.4381406e-38
-0.18018001 -0.15811715 1.2870001 1.8162175e-38
-0.17616239 -0.15903094 1.2845001 1.7977795e-38
-0.012257142 -0.15076287 1.2870001 1.3374126e-38
-0.0073400005 -0.15414238 1.2845001 1.3452998e-38
0.0073257145 -0.15994476 1.2820001 1.1426461e-38
0.017093334 -0.1587238 1.2820001 1.816543e-38
0.02518899 -0.15555665 1.2823123 1.9360348e-38
0.033471428 -0.15472288 1.2869999 1.94529e-38
0.041674286 -0.15811715 1.2870001 2.2401027e-38
-0.18018001 -0.16056858 1.2870001 1.8163617e-38
-0.17584915 -0.16410516 1.2840002 1.7977069e-38
0.0058179768 -0.1635537 1.286375 1.4926972e-38
0.01440724 -0.16531694 1.2819999 1.2161158e-38
0.024445636 -0.16560134 1.2832501 1.2907425e-38
0.034320004 -0.16424575 1.2870001 1.8165434e-38
0.040448572 -0.16424572 1.2870001 1.9269275e-38
-0.084144644 -0.17716083 1.2851251 2.0375953e-38
-0.079361908 -0.17948 1.2820001 1.8808257e-38
0.0085800011 -0.17037429 1.2870001 1.9555183e-38
0.014708571 -0.17405145 1.2870001 1.7591722e-38
0.024754034 -0.17425182 1.2866668 1.6311368e-38
0.034320004 -0.17405145 1.2870001 1.6492885e-38
0.040448572 -0.17037429 1.2870001 1.5758953e-38
-0.08302477 -0.18192191 1.2820001 1.8248257e-38
0.060246665 0.38238192 1.291 1.4861178e-38
0.035751905 0.37355289 1.2945 1.5040167e-38
0.043729842 0.37347049 1.2934999 2.120823e-38
0.05778762 0.37992287 1.291 6.6458023e-39
0.077459998 0.37008667 1.291 2.332579e-38
0.035414506 0.36563343 1.2959999 9.326234e-39
0.044333987 0.36455482 1.2931875 2.0839812e-38
0.052049842 0.36352921 1.291 1.7427861e-38
0.076230481 0.36393905 1.2910001 2.0374856e-38
0.035973042 0.35552865 1.2934998 6.2909767e-39
0.044333991 0.35470492 1.2931874 1.8074329e-38
0.053815309 0.35495406 1.2910001 1.6872549e-38
0.060246665 0.3565619 1.291 3.6958336e-39
0.078074761 0.35471761 1.291 2.2315644e-38
0.084229805 0.35290977 1.2924286 2.2495369e-38
0.038262855 0.34930286 1.296 1.5047535e-39
0.044283092 0.3444339 1.291625 1.8995188e-38
0.079919048 0.34426665 1.291 2.277484e-38
0.085319497 0.34458232 1.2925385 2.3417689e-38
0.094098091 0.34227714 1.2943333 2.3417687e-38
0.044359289 0.33518645 1.2939167 2.2215184e-38
0.079919048 0.33443046 1.291 2.3325853e-38
0.085293479 0.33444673 1.292154 2.3325494e-38
0.095110811 0.33474994 1.2930589 2.3234018e-38
0.046408888 0.32542983 1.2937777 2.1850373e-38
0.079919048 0.32828283 1.291 2.3417689e-38
0.086066663 0.32828283 1.291 2.3417689e-38
0.094673328 0.32828283 1.2910001 2.341769e-38
0.046389312 0.31489006 1.2932223 2.2681924e-38
0.038262855 0.30239999 1.296 1.1997703e-38
0.043069314 0.30559629 1.292111 1.8993405e-38
0.038225953 0.29594165 1.29475 6.5621574e-39
0.041189048 0.29447097 1.291 1.1444172e-38
0.04268204 0.28542516 1.291 6.8398205e-39
0.044672698 0.27554992 1.291 4.6285701e-39
