# .PCD v0.7 - Point Cloud Data file format
VERSION 0.7
FIELDS x y z rgb
SIZE 4 4 4 4
TYPE F F F F
COUNT 1 1 1 1
WIDTH 1035
HEIGHT 1
VIEWPOINT 0 0 0 1 0 0 0
POINTS 1035
DATA ascii
0.073327743 0.35757917 1.267375 1.078617e-38
0.026703427 0.34329545 1.263 1.1138725e-38
0.03362995 0.34585959 1.2663332 8.9375741e-39
0.045889527 0.34900188 1.268 9.7727298e-39
0.055550475 0.34900188 1.268 1.0694673e-38
0.045889523 0.30311239 1.268 1.2056064e-38
0.047902223 0.29465908 1.2680001 1.2815209e-38
0.046213761 0.28463069 1.2657778 1.1797811e-38
0.039171431 0.27298522 1.2655001 1.0046438e-38
0.043232765 0.27702782 1.268 1.0598561e-38
0.02526 0.26823714 1.263 8.7611128e-39
0.03378357 0.26903358 1.26675 9.2213679e-39
-0.072171427 0.19125429 1.263 1.4012667e-38
-0.07257238 0.18804666 1.263 1.392155e-38
-0.0241 0.18199095 1.2655001 2.2220922e-39
-0.02185932 0.17712273 1.265143 8.6652892e-39
-0.017510476 0.17570859 1.268 1.2173783e-38
-0.063970141 0.16566625 1.2630001 1.3645308e-38
-0.020448571 0.16960286 1.263 1.5489589e-38
-0.017079184 0.16371864 1.2680001 1.4568713e-38
-0.063751437 0.15805542 1.263 1.3830778e-38
-0.014935905 0.15391134 1.2645 1.4936771e-38
-0.0084199999 0.15156001 1.263 1.438216e-38
-0.061345719 0.14554572 1.263 1.4198846e-38
-0.055371609 0.14444731 1.2639377 1.3459835e-38
-0.047942452 0.14314002 1.263 1.0972736e-38
-0.013953142 0.14386173 1.2630001 1.6041679e-38
-0.0079388572 0.14506458 1.263 1.5304451e-38
-0.055188783 0.13573176 1.2676427 1.3830059e-38
-0.046238024 0.13475776 1.2633574 1.2356381e-38
-0.011856736 0.13523552 1.263 1.9454358e-38
-0.0056184921 0.13413596 1.2650833 1.8346914e-38
0.0012076191 0.13404572 1.268 1.3906738e-38
-0.053135242 0.12559238 1.268 1.3462004e-38
-0.047446031 0.1260327 1.2630001 1.290882e-38
-0.0044677551 0.12561268 1.2630002 1.8074305e-38
0.002011111 0.12261111 1.2663333 1.751825e-38
-0.053756475 0.1157043 1.2655001 1.3186856e-38
-0.049317144 0.11587524 1.263 1.1801359e-38
-0.0032076191 0.11747905 1.263 1.7059452e-38
-0.054128572 0.10636695 1.263 1.3737857e-38
-0.048715718 0.10464858 1.263 1.0677737e-38
-0.054304771 0.095330037 1.2670909 1.300137e-38
-0.046370421 0.094239935 1.2645626 1.0024095e-38
-0.051927619 0.084533334 1.268 1.2816637e-38
-0.046038352 0.084597081 1.2653334 1.0491564e-38
-0.039694287 0.081794292 1.263 1.0013299e-38
0.068834282 0.080910474 1.268 2.0193379e-38
0.074872382 0.080910474 1.268 2.1300436e-38
-0.046074226 0.074532129 1.2663333 1.1427558e-38
-0.039694287 0.074577138 1.263 9.7493113e-39
0.059173334 0.07124953 1.268 1.6414463e-38
0.065840811 0.074200526 1.2676153 1.8350553e-38
0.074854828 0.074854836 1.2676873 1.8441664e-38
0.08284267 0.074872389 1.268 1.373755e-38
-0.044681907 0.06641905 1.268 1.189288e-38
-0.035875939 0.064121403 1.2640002 1.1710286e-38
-0.024057142 0.061345715 1.263 1.189468e-38
-0.017030885 0.06450817 1.2644286 1.1987953e-38
0.0036228569 0.066419043 1.268 1.1057716e-38
0.059173334 0.065211423 1.268 1.5218062e-38
0.065143578 0.065147147 1.26675 1.5584678e-38
0.074496567 0.06533011 1.2656666 1.2262026e-38
0.082118094 0.068834282 1.268 1.0972003e-38
-0.044078097 0.056758098 1.268 1.1892879e-38
-0.035240848 0.055680759 1.2666842 1.0786896e-38
-0.024586381 0.057125431 1.2655001 9.4036137e-39
-0.015296508 0.056758098 1.2680001 8.5759999e-39
0.0024057142 0.058940001 1.263 8.7618162e-39
0.058690287 0.054825909 1.268 1.2542944e-38
0.065194473 0.055535898 1.2676873 1.1986512e-38
0.07205461 0.058368258 1.268 1.115675e-38
0.059173334 0.049512379 1.268 1.1708863e-38
0.06400381 0.048908569 1.268 1.1523387e-38
0.024507051 0.45354247 1.274 1.1312671e-38
0.033920001 0.45670861 1.2720001 1.1312653e-38
0.048457146 0.45670861 1.2720001 1.4064132e-38
0.014017959 0.44597888 1.2720002 1.1689011e-38
0.021805715 0.4482286 1.2720001 1.5367087e-38
0.077935241 0.44863242 1.2720001 1.720636e-38
0.10560429 0.41536471 1.2745003 1.1042884e-38
0.11067334 0.41593716 1.2770001 4.1412237e-39
0.10696043 0.40582001 1.274143 1.1337523e-38
0.11165389 0.40650371 1.2762858 8.5611993e-39
0.098125719 0.39250287 1.2720001 1.3462728e-38
0.1039558 0.39502043 1.2734288 1.3461984e-38
0.11045667 0.39812714 1.2745001 1.050305e-38
-0.020634763 0.38113382 1.2745001 1.4729567e-39
-0.017216573 0.38238272 1.2730001 5.5175987e-40
0.09748859 0.38458195 1.2727145 1.2724443e-38
0.10277019 0.38629097 1.2755002 1.2725148e-38
-0.02067524 0.37823528 1.2770001 1.1967369e-39
-0.01514881 0.3752625 1.2724168 1.9336041e-39
-0.0084800003 0.37312001 1.2720001 7.2946399e-39
0.087626666 0.37271625 1.2720001 1.1432631e-38
0.093889795 0.37566021 1.2742729 1.1801413e-38
-0.014537144 0.36867809 1.2720002 2.0257843e-39
-0.0060571432 0.3682743 1.2720002 7.7469973e-39
0.085388511 0.36505744 1.2723335 1.1339348e-38
0.092900679 0.36413115 1.2762859 1.0510666e-38
0.066270001 0.35113987 1.2728335 1.0970902e-38
0.075711243 0.35453278 1.2740002 1.0786522e-38
0.08508835 0.35613358 1.2752353 1.1154952e-38
0.092864878 0.35622337 1.2736669 1.0786882e-38
0.03591162 0.34458289 1.2740003 8.9364923e-39
0.045783993 0.34609175 1.2742729 9.1280862e-39
0.05583524 0.3471472 1.2745001 1.0602507e-38
0.06356477 0.34696954 1.2753334 1.0879803e-38
0.086349532 0.34904668 1.2770001 1.115531e-38
0.047245719 0.30487621 1.2720001 1.3172477e-38
0.049668577 0.29558861 1.2720001 1.4019149e-38
0.055416383 0.29481831 1.2760003 1.6045298e-38
0.06567429 0.29310197 1.2770002 1.6136766e-38
0.071755245 0.29310191 1.2770002 1.6136044e-38
0.049668577 0.2834743 1.2720001 1.2819172e-38
0.05572572 0.28589714 1.2720001 1.4386138e-38
0.064776264 0.28461099 1.2758464 1.484675e-38
0.071755238 0.28823715 1.2770001 1.5584268e-38
0.023017144 0.27014858 1.2720001 8.3912541e-39
0.039977144 0.27014858 1.2720001 9.6794565e-39
0.046922673 0.2740252 1.2720002 1.1158201e-38
0.055749048 0.27510101 1.2724999 1.2448585e-38
0.06391757 0.27553475 1.2770001 1.3278343e-38
0.025031621 0.26808116 1.276 8.6682025e-39
0.035182346 0.26607454 1.2739233 8.9444138e-39
0.045437995 0.26427883 1.2742224 1.0420268e-38
0.055552721 0.26542598 1.2759289 1.134187e-38
0.062025718 0.26634574 1.2770002 1.1986518e-38
0.044999052 0.25904858 1.2770001 1.0328436e-38
0.052296191 0.25904858 1.2770001 1.0881244e-38
-0.015748573 0.17358044 1.2720002 1.3368736e-38
-0.012720001 0.16475429 1.2720002 1.3738952e-38
-0.012114286 0.15748572 1.2720001 1.438216e-38
-0.0084800003 0.15748572 1.2720001 1.410521e-38
-0.058148574 0.13204572 1.2720001 1.410558e-38
-0.058236077 0.12526037 1.2738752 1.3921897e-38
-0.058530856 0.11535525 1.2750001 1.3738582e-38
-0.058454975 0.1038977 1.2748573 1.4015179e-38
-0.057003815 0.094424494 1.2734288 1.3738585e-38
-0.055809643 0.084923215 1.2738751 1.3553481e-38
0.05679857 0.082924053 1.2757502 1.770519e-38
0.065525994 0.08494626 1.2741431 1.9916791e-38
0.075192928 0.085418507 1.2734287 2.111461e-38
0.085131191 0.084649779 1.2733334 2.1483387e-38
0.093159758 0.084563561 1.2733639 1.8811157e-38
-0.053826768 0.075407721 1.274778 1.2908466e-38
0.049863812 0.074187621 1.2770001 1.4020241e-38
0.055538677 0.075431503 1.2733334 1.5770884e-38
0.06259048 0.077935241 1.2720001 1.862714e-38
0.087626666 0.075108573 1.2720002 1.253755e-38
0.092833064 0.075623147 1.2725003 1.1704898e-38
-0.052750714 0.067302145 1.2732501 1.2536449e-38
-0.048053335 0.063398093 1.2720002 1.2076907e-38
0.0060682539 0.065908253 1.2736669 8.0224673e-39
0.048647624 0.06567429 1.2770001 1.2450751e-38
0.054514289 0.065417148 1.2720003 1.3832258e-38
0.078742862 0.061782859 1.2720001 1.1250744e-38
0.084622428 0.065642864 1.2742729 1.1432264e-38
0.090857148 0.06905143 1.2720001 1.1983998e-38
-0.049668577 0.059360001 1.2720001 1.1710287e-38
-0.030285714 0.052091431 1.2720001 1.1522643e-38
-0.023449525 0.052967306 1.2736667 9.8645596e-39
-0.016960001 0.054514285 1.2720001 8.4798413e-39
0.048765585 0.056400679 1.2755716 1.1526626e-38
0.054294031 0.056056112 1.2720003 1.2450021e-38
0.075310901 0.056178205 1.2731113 1.152481e-38
0.081484765 0.059593335 1.2770001 1.1618084e-38
-0.033344049 0.049111672 1.2732501 1.2079425e-38
-0.027972383 0.049863812 1.2770001 1.1619175e-38
0.049863812 0.04864762 1.2770001 1.0513204e-38
0.055788301 0.046082597 1.2734287 1.0881612e-38
0.066070415 0.044068895 1.2736669 1.1709208e-38
0.071755245 0.046620637 1.2770002 1.3460555e-38
0.10866477 0.41878667 1.2820001 7.731761e-39
0.11110667 0.4175657 1.2820001 3.6770086e-39
0.10880604 0.39488035 1.2836668 1.1067758e-38
0.10378096 0.38337904 1.2820001 1.2631882e-38
0.09766572 0.37405813 1.284143 1.1248593e-38
0.10201111 0.37580225 1.2853334 1.1154982e-38
0.097152933 0.36680904 1.2820002 1.0878727e-38
0.069594286 0.35041335 1.2820001 1.1340766e-38
0.07635089 0.3520456 1.284143 1.1248213e-38
0.083186671 0.35231763 1.2845001 1.1339702e-38
0.036771432 0.34442571 1.2870001 7.9144553e-39
0.044475555 0.34479365 1.2853335 6.6395273e-39
0.05504762 0.34497762 1.2845 8.8543804e-39
0.066328958 0.34560078 1.285 9.5930202e-39
0.075994283 0.34810284 1.2870001 1.115603e-38
0.082940005 0.34851146 1.2870001 1.0880532e-38
0.046700548 0.31641135 1.2855716 1.2892994e-38
0.053133678 0.31333822 1.2865454 1.6321157e-38
0.063737147 0.31010574 1.2870001 1.7612248e-38
0.047617145 0.30890095 1.2820001 1.2998505e-38
0.054608099 0.30482179 1.2836666 1.7152717e-38
0.065313071 0.30537802 1.2870001 1.751934e-38
0.074360006 0.30275142 1.2870002 1.7151268e-38
0.058605716 0.29913336 1.2820001 1.7243823e-38
0.065931432 0.29913336 1.2820001 1.6873252e-38
0.076836981 0.29476947 1.2842727 1.5380816e-38
0.082735717 0.29233289 1.2870001 1.3874735e-38
0.069594286 0.28448194 1.2820001 1.484639e-38
0.076075025 0.28477868 1.284647 1.3523938e-38
0.082122862 0.28436571 1.2870001 1.0478226e-38
0.068198919 0.27506313 1.2820002 1.3092491e-38
0.075761452 0.27485636 1.286706 1.1308732e-38
0.082122862 0.27701145 1.2870001 8.0941367e-39
0.016853573 0.26383501 1.2870001 9.1284422e-39
0.024225652 0.26402506 1.2846667 8.4841587e-39
0.033806138 0.26191726 1.2831112 9.1277275e-39
0.057873141 0.26103964 1.2820001 1.1156038e-38
0.066625163 0.26469532 1.2828822 1.1138369e-38
0.075749144 0.26483601 1.2870001 9.8346686e-39
0.025740001 0.2561743 1.2870001 9.0366039e-39
0.034320004 0.25494859 1.2870001 9.4053906e-39
0.04405101 0.25451082 1.2848125 1.0051113e-38
0.053828456 0.25445038 1.2845001 1.0222548e-38
0.064962856 0.25494856 1.2870002 9.743905e-39
0.073297724 0.2566646 1.2870001 6.6186157e-39
0.035545714 0.24882001 1.2870001 9.6805383e-39
0.043950614 0.24776943 1.2870002 9.4835382e-39
0.053406127 0.24776943 1.2870002 9.4637434e-39
0.063737139 0.24882001 1.2870001 9.9250607e-39
-0.059826672 0.11354858 1.2820001 1.3921897e-38
0.045351431 0.093154296 1.2870002 1.6415159e-38
0.054729126 0.093941681 1.2865833 1.8443101e-38
0.065125413 0.095666178 1.2851579 2.0470319e-38
0.075298779 0.093636863 1.2835001 2.1113891e-38
0.08563333 0.092975721 1.2845 2.16667e-38
0.095420003 0.092975721 1.2845 2.2865597e-38
0.10593674 0.0929792 1.2870002 2.286559e-38
0.11110667 0.091571428 1.2820001 2.2947329e-38
-0.062430479 0.084464774 1.2853335 1.3553476e-38
-0.059826672 0.085466668 1.2820001 1.3461645e-38
0.044960007 0.085869759 1.2866154 1.5215901e-38
0.053551748 0.08694905 1.2828332 1.7428245e-38
0.062268574 0.08912953 1.2820001 1.9733116e-38
0.081803814 0.08912953 1.2820001 2.16667e-38
0.098408759 0.086199246 1.2820001 1.7889228e-38
0.10541143 0.0858 1.2870001 1.4661668e-38
0.11366878 0.085353859 1.2864444 1.3183287e-38
-0.061694287 0.078854293 1.2870001 1.309322e-38
-0.058361527 0.075454861 1.2820001 1.2908827e-38
0.045274839 0.075872459 1.2849166 1.3187956e-38
0.05005905 0.076920003 1.2820001 1.44805e-38
0.09821175 0.074980319 1.2836668 1.1617009e-38
0.10320514 0.078200571 1.2870001 1.1156029e-38
0.0049028574 0.063737147 1.2870001 8.3919281e-39
0.011031428 0.067414291 1.2870001 8.8616055e-39
0.043911219 0.065393336 1.2847778 1.1434077e-38
0.088289909 0.061873525 1.2840002 8.6617159e-39
0.09366972 0.067743622 1.2840002 1.023838e-38
-0.023238573 0.050156668 1.2845001 1.0327345e-38
-0.017093334 0.052500956 1.2820001 9.3131865e-39
0.045251429 0.054493334 1.2842222 1.0052579e-38
0.077357285 0.051860411 1.2834288 1.290774e-38
0.083685189 0.055378728 1.2858889 1.2077971e-38
-0.031868573 0.047802858 1.2870001 1.2263101e-38
-0.013482857 0.047802858 1.2870001 9.3139194e-39
0.046861909 0.046865083 1.2836668 9.8670946e-39
0.054604128 0.041566353 1.2836668 9.9585798e-39
0.062268574 0.040291432 1.2820001 1.078941e-38
0.07635361 0.043852653 1.2841429 1.3096449e-38
0.082613148 0.043880571 1.2870001 1.2818067e-38
0.05755024 0.037347384 1.28575 9.681637e-39
0.06592197 0.034563635 1.2848125 1.0235523e-38
0.075334609 0.035317622 1.2861667 1.1526243e-38
0.10450953 0.37500477 1.291 1.2815599e-38
0.035794284 0.34436572 1.296 1.0389315e-38
0.044887759 0.34273836 1.2938572 2.9474281e-39
0.054365173 0.34254858 1.2931429 4.4286426e-39
0.064017788 0.34265715 1.2926667 5.5317448e-39
0.073525518 0.34451255 1.291 8.1196992e-39
0.047252383 0.32584539 1.2943333 1.2713287e-38
0.053691842 0.32337782 1.2938571 1.364387e-38
0.061714284 0.32214859 1.296 1.502895e-38
0.055820383 0.31746304 1.291 1.6410469e-38
0.063727692 0.3154206 1.2925385 1.7057643e-38
0.072992139 0.31321356 1.2934999 1.7888123e-38
0.077108711 0.30580014 1.291 1.7331704e-38
0.083662592 0.30418259 1.2945715 1.5551184e-38
0.085801549 0.29615247 1.291625 1.4063787e-38
0.090102859 0.29376 1.296 1.332871e-38
0.086066671 0.2852495 1.291 1.1303664e-38
0.090102859 0.28388572 1.296 1.1574872e-38
0.085599996 0.27469435 1.2923638 1.0568648e-38
0.079919048 0.26434761 1.291 1.057115e-38
0.084744126 0.26509711 1.2926668 1.0753752e-38
0.015829591 0.25538632 1.2927859 9.40432e-39
0.02254127 0.25369173 1.291 9.220628e-39
0.07726372 0.25482282 1.2914547 8.0890669e-39
0.082605988 0.25556409 1.2945715 1.0477887e-38
0.024898887 0.24558756 1.2929446 9.5890658e-39
0.033869397 0.24447116 1.2916669 9.7720123e-39
0.04439947 0.24385555 1.291 8.9163094e-39
0.054508891 0.24385555 1.291 9.4669566e-39
0.063935235 0.24467522 1.2910001 9.8350161e-39
0.072992146 0.24529856 1.2934999 9.9272075e-39
0.02592 0.23821715 1.296 9.7734598e-39
0.036957141 0.23898713 1.2934999 9.8631065e-39
0.044612572 0.23833942 1.2939999 9.0078002e-39
0.05452894 0.23755163 1.2944615 9.3765659e-39
0.063821837 0.23755164 1.2944614 9.7435477e-39
0.070354283 0.23821715 1.296 9.5598683e-39
0.046902858 0.11232 1.296 1.7154882e-38
0.054308571 0.11355428 1.296 1.9364343e-38
0.063319527 0.11307064 1.2951667 2.1299714e-38
0.03702857 0.10368 1.296 1.5489593e-38
0.044576705 0.10565951 1.2930001 1.6505921e-38
0.054149639 0.10584441 1.29225 1.9271787e-38
0.063951604 0.10576554 1.2913126 2.0745466e-38
0.074070886 0.10486206 1.293143 2.0930216e-38
0.084413476 0.10379987 1.2952857 2.185181e-38
0.091337144 0.10244571 1.296 2.2680129e-38
0.036476757 0.094892383 1.294 1.475492e-38
0.043525141 0.097378284 1.2910001 1.6229332e-38
0.053361334 0.099099621 1.291 1.8536384e-38
0.077050157 0.098771743 1.291 2.1206444e-38
0.086066671 0.098361902 1.291 2.1943646e-38
0.095533065 0.098351568 1.2931429 2.2589371e-38
0.10205048 0.094673328 1.291 2.2681207e-38
0.036954761 0.084999047 1.2934999 1.3464521e-38
0.04057429 0.085656822 1.2910001 1.4293941e-38
0.11680476 0.082378097 1.291 1.0972383e-38
0.037083704 0.074581474 1.2932222 1.1250402e-38
0.040574286 0.075000949 1.291 1.2081967e-38
0.099591427 0.070082851 1.291 9.5977118e-39
0.10649033 0.074888885 1.2926669 1.1248943e-38
0.11530676 0.078099906 1.2934999 1.1340784e-38
0.12219428 0.077760004 1.296 1.1249668e-38
0.0076297149 0.062260576 1.2920001 8.6692647e-39
0.012581143 0.061910667 1.295 1.0146219e-38
0.037769143 0.064923428 1.296 1.0142254e-38
0.040574286 0.063935243 1.291 1.0511752e-38
0.094387308 0.063198105 1.2926667 5.6225223e-39
-0.023360951 0.050410476 1.291 1.0323031e-38
-0.017213333 0.050410476 1.291 9.2199273e-39
0.015222858 0.054719999 1.296 1.0328811e-38
0.041843094 0.054152619 1.2922499 9.1298897e-39
0.088218331 0.053176906 1.291 1.087549e-38
0.09362939 0.054132245 1.2960001 9.0384017e-39
-0.024658332 0.048090711 1.29475 1.0879086e-38
0.045600001 0.044608764 1.294 9.4983079e-39
0.050410476 0.041803811 1.291 9.5894343e-39
0.087296188 0.044754665 1.2910001 1.1338978e-38
0.091954291 0.044434287 1.296 9.0355235e-39
0.054845355 0.034508213 1.2941251 9.4046815e-39
0.061066352 0.03155778 1.2910001 9.2213833e-39
0.077460006 0.03155778 1.2910001 1.014546e-38
0.083769523 0.035414286 1.2935001 1.0141879e-38
0.090102859 0.038262855 1.296 8.8500574e-39
0.058011428 0.028388571 1.296 9.6801908e-39
0.064603679 0.027283676 1.2938571 9.5905035e-39
0.073206089 0.027851049 1.294 8.8489686e-39
0.037679687 0.34326643 1.3043336 1.2319277e-38
0.043893721 0.34149566 1.3020002 4.5086091e-39
0.054270294 0.34123373 1.3010001 3.1378954e-39
0.064639218 0.34265703 1.3051668 5.1604315e-39
0.045209534 0.33544999 1.303143 9.1086208e-39
0.054691017 0.3355878 1.3050625 6.2674881e-39
0.061775878 0.3345848 1.3060001 8.016694e-39
0.056537386 0.32867453 1.3047502 1.2076888e-38
0.064982653 0.32601568 1.3037779 1.3920446e-38
0.073661797 0.32354727 1.3053751 1.65041e-38
0.076201431 0.31781572 1.3010001 1.8162196e-38
0.084152825 0.31413174 1.3046366 1.7883445e-38
0.090798102 0.31219622 1.3060001 1.6100764e-38
0.087146364 0.30769685 1.3010001 1.5078007e-38
0.093849704 0.30474699 1.3051667 1.4248525e-38
0.095623747 0.29555488 1.3039168 1.2958143e-38
0.095132962 0.28613564 1.3040001 1.2978678e-38
0.093451574 0.27576223 1.3029232 1.2531034e-38
0.087972388 0.26143906 1.3010001 1.1600443e-38
0.093347393 0.2659584 1.3039168 1.2722251e-38
0.0087066675 0.25000572 1.3060001 1.0879443e-38
0.013152952 0.25091833 1.3030002 9.9564162e-39
0.08590734 0.2534959 1.3035001 1.1139478e-38
0.091226101 0.25677201 1.3050002 1.2448935e-38
0.016141905 0.24639185 1.3040001 9.7730997e-39
0.022365954 0.24106693 1.3047502 9.589786e-39
0.07774248 0.24266326 1.3040001 9.9236384e-39
0.082224905 0.24631527 1.3052859 1.0670563e-38
0.026689526 0.23773238 1.3035002 9.8649394e-39
0.034583177 0.23658384 1.3021113 9.9567609e-39
0.045172766 0.23379181 1.3030003 9.4766971e-39
0.054312222 0.23203982 1.3041819 9.2861765e-39
0.064905204 0.23195887 1.3037275 9.7500287e-39
0.07396277 0.23565388 1.3041821 9.5645585e-39
0.057215244 0.22761716 1.3060001 1.0234371e-38
0.060946673 0.22761716 1.3060001 1.0326208e-38
0.057215244 0.12064954 1.3060001 1.7528656e-38
0.064429343 0.12114706 1.3060001 2.0471021e-38
0.070897147 0.12064954 1.3060001 2.0467805e-38
0.087066673 0.12064954 1.3060001 2.1298621e-38
0.036021277 0.11055779 1.3043336 1.4393656e-38
0.044501502 0.11435921 1.303143 1.567937e-38
0.054566912 0.11782263 1.3022501 2.0101144e-38
0.065300167 0.1169589 1.3018335 2.1023483e-38
0.074764326 0.11450719 1.3040001 2.0837663e-38
0.084841914 0.11377633 1.3045715 2.1482668e-38
0.092930347 0.11247593 1.3060002 2.1759601e-38
0.02703917 0.10380871 1.3053751 1.3556374e-38
0.033218384 0.10486487 1.3015003 1.4663064e-38
0.084255241 0.10779715 1.3010001 2.1482313e-38
0.094468273 0.10577641 1.3032224 2.20362e-38
0.027363811 0.094529532 1.3060001 1.198978e-38
0.032038234 0.094698645 1.3010001 1.3740398e-38
0.027052859 0.085200958 1.3060001 9.6841565e-39
0.032245003 0.084336199 1.3022501 1.1987971e-38
0.028110096 0.075374864 1.3060001 9.4965184e-39
0.032244999 0.074411906 1.3022501 1.014118e-38
0.1065581 0.070625715 1.3010001 6.6535865e-39
0.11503358 0.072242379 1.3022501 1.1156398e-38
0.12165922 0.073241115 1.3035002 1.1708485e-38
0.014277618 0.065176196 1.3035002 1.15313e-38
0.03413691 0.064554289 1.3035002 9.7723738e-39
0.097884767 0.063191436 1.3010001 6.730997e-39
0.10438299 0.064614415 1.3047501 6.2671518e-39
0.11293792 0.065424398 1.3060001 1.1251828e-38
0.12064954 0.068409532 1.3060001 1.161631e-38
0.0062005958 0.056459405 1.302875 9.8652939e-39
0.01308942 0.054423809 1.3021113 1.0050778e-38
0.037679687 0.055483814 1.3043336 1.0416259e-38
0.040888574 0.052040003 1.3010001 9.6779992e-39
0.097389154 0.05476591 1.3010001 9.6819719e-39
0.10448001 0.054727621 1.306 8.7629064e-39
0.11069906 0.054727621 1.3060001 1.0512844e-38
-0.033191554 0.043736551 1.302875 1.2445693e-38
-0.024836114 0.043460723 1.3039169 1.1247508e-38
-0.016983917 0.044597674 1.3048891 9.5883539e-39
0.015659621 0.046978861 1.3050002 9.3153698e-39
0.038558099 0.048508577 1.3060001 1.4654757e-38
0.042867385 0.043492857 1.3047502 1.1616641e-38
0.096072026 0.044625361 1.3016253 8.8522182e-39
0.1039825 0.046518482 1.3060001 8.482721e-39
0.11069906 0.047264766 1.3060001 1.0145453e-38
-0.032339051 0.037314288 1.3060001 1.2078348e-38
-0.024851194 0.036038335 1.3047502 1.1801751e-38
-0.015893122 0.035794079 1.3060001 1.0599982e-38
0.04600548 0.034814369 1.3055834 1.1248579e-38
0.051792193 0.032958668 1.3010001 9.8635003e-39
0.085494295 0.033454288 1.3010001 8.6667465e-39
0.09204191 0.037314288 1.3060001 8.2986885e-39
0.046518479 0.025373716 1.3060001 1.125327e-38
0.054406796 0.024593461 1.3043336 1.0693973e-38
0.06412752 0.022751853 1.3032223 8.848991e-39
0.073200643 0.025227305 1.3026669 8.3861631e-39
0.080847628 0.02860762 1.3060001 7.3727917e-39
0.047264766 0.018657144 1.3060001 7.3807161e-39
0.054727625 0.018657144 1.3060001 1.1618086e-38
0.062190481 0.018657144 1.3060001 9.4929213e-39
0.038705718 0.34086001 1.3110001 1.5086519e-38
0.064925715 0.34086001 1.3110001 4.610129e-39
0.038705718 0.3383629 1.3110001 1.6095987e-38
0.065801755 0.33566231 1.3118334 7.3716917e-39
0.072094604 0.33212447 1.3126668 1.2075095e-38
0.076787151 0.32775 1.3110001 1.5581056e-38
0.084532969 0.32337582 1.3130001 1.7886677e-38
0.092746675 0.32210669 1.3160001 1.7887405e-38
0.08864858 0.31838572 1.3110001 1.8072497e-38
0.095505111 0.31525695 1.3120716 1.6207728e-38
0.10277335 0.3145867 1.3160001 1.3790149e-38
0.098637149 0.30839714 1.3110001 1.3881544e-38
0.10355074 0.30473343 1.3128182 1.3322614e-38
0.10297578 0.29557857 1.3132223 1.2602318e-38
0.098637149 0.28467429 1.3110001 1.4202407e-38
0.10216271 0.28605196 1.3135002 1.2993093e-38
0.098637149 0.27468574 1.3110001 1.1597202e-38
0.10237389 0.27459759 1.313143 9.9203958e-39
0.097638302 0.2634486 1.3110001 1.1327458e-38
0.10216271 0.26603511 1.3135002 9.7403247e-39
0.08864858 0.25096288 1.3110001 1.1903284e-38
0.095639527 0.25503081 1.3126667 1.24475e-38
0.10152001 0.25944 1.3160001 1.2245785e-38
0.0087400004 0.24721715 1.3110001 1.0509946e-38
0.015001906 0.24294543 1.3126668 9.7741801e-39
0.086185247 0.24356337 1.3115 1.134005e-38
0.092270963 0.24633098 1.3151668 1.1895041e-38
0.018800002 0.23938668 1.3160001 9.7741815e-39
0.025760574 0.23633812 1.3130001 9.6816257e-39
0.034571324 0.23284626 1.3121111 9.7741717e-39
0.043075718 0.23161003 1.3110001 9.7709263e-39
0.075845093 0.23211175 1.3126668 1.0599614e-38
0.0847902 0.2360768 1.3136925 1.1248587e-38
0.091493338 0.23813334 1.3160001 1.1617011e-38
0.03801778 0.22852445 1.3160002 9.683411e-39
0.045726385 0.2259412 1.314077 9.8667205e-39
0.054920178 0.22546999 1.3132728 1.0051113e-38
0.065024771 0.22633336 1.3130001 1.0420252e-38
0.073867761 0.22767866 1.3145716 1.0697208e-38
0.04869429 0.12111144 1.3110001 9.7691691e-39
0.055039525 0.12259334 1.3135002 1.4294273e-38
0.065341912 0.12360859 1.3110001 1.9823836e-38
0.075200833 0.12517229 1.3116668 1.982421e-38
0.083654292 0.12360859 1.311 2.1021664e-38
0.018800002 0.11154667 1.3160001 1.4574478e-38
0.025014287 0.11133477 1.3135002 1.5309528e-38
0.035734858 0.11370669 1.3120002 1.2076509e-38
0.043115001 0.1181031 1.3122501 7.5611361e-39
0.082405716 0.11861429 1.3110001 2.111425e-38
0.098637149 0.11112286 1.3110001 2.0647844e-38
0.017512145 0.10508358 1.3135 1.2077297e-38
0.022786433 0.10550429 1.311 1.3187963e-38
0.098637149 0.10862572 1.3110001 2.1665596e-38
0.016730858 0.094891444 1.311 1.3001017e-38
0.022474289 0.094891444 1.311 1.0511734e-38
0.017090267 0.085462965 1.3132223 1.2538587e-38
0.022786431 0.084278569 1.311 9.7705774e-39
0.017687619 0.075568438 1.313143 8.9401301e-39
0.023518791 0.074648678 1.3123636 9.0358906e-39
0.016262382 0.067553818 1.3135002 1.1621337e-38
0.026605953 0.066675715 1.3147501 8.944404e-39
0.031253971 0.063754931 1.3126668 9.5879433e-39
0.11736572 0.063677147 1.3110001 1.3738595e-38
0.12333112 0.065064453 1.311 1.3645316e-38
0.0045780959 0.054520957 1.3110001 9.5901574e-39
0.018728573 0.053688578 1.3110001 1.1158547e-38
0.024116548 0.052928928 1.3153751 1.1525173e-38
0.033272479 0.054541051 1.3135 1.2077604e-38
0.11611716 0.054937147 1.311 1.2818788e-38
0.12236002 0.054937147 1.311 1.2906302e-38
-0.013734287 0.043700002 1.3110001 9.4983121e-39
0.0087733343 0.048880003 1.3160001 9.6826879e-39
0.014358572 0.04682143 1.3110001 9.3135565e-39
0.025037304 0.046312228 1.3143334 9.1245073e-39
0.034759808 0.044768706 1.3130002 1.1897563e-38
0.098637149 0.041202862 1.3110001 8.6674626e-39
0.10571238 0.042035244 1.3110001 8.6656717e-39
0.11507668 0.045156673 1.311 1.1709554e-38
0.12126541 0.046252705 1.3126669 1.2168381e-38
-0.012485715 0.038705718 1.3110001 9.3149746e-39
0.035873115 0.035300519 1.3129232 8.8518763e-39
0.041202862 0.034960002 1.3110001 1.1992283e-38
0.087400004 0.032462858 1.3110001 8.3887121e-39
0.095430672 0.036818482 1.3150001 8.0224589e-39
0.10603201 0.038352001 1.3160001 9.8638408e-39
0.11112286 0.038705718 1.3110001 1.1529116e-38
0.037357688 0.026277145 1.3138573 6.4540724e-39
0.042035244 0.02413905 1.3110001 7.1048537e-39
0.07477887 0.023257716 1.3130001 8.2943613e-39
0.083654292 0.028717143 1.3110001 7.0065232e-39
0.045970716 0.015635716 1.3135 4.3317793e-39
0.054937154 0.013734288 1.311 9.7770556e-39
0.065374628 0.014465784 1.3127857 1.0878716e-38
0.072275564 0.017964447 1.3160002 9.4043018e-39
0.048880003 0.0087733343 1.3160001 6.8203088e-39
0.055312257 0.005251938 1.3140001 8.0192219e-39
0.063900575 0.005010556 1.3155835 8.576367e-39
0.058906671 -0.0012533334 1.3160001 9.39566e-39
0.064546674 -0.0018800001 1.3160001 8.5644588e-39
0.083348572 0.33213148 1.3260001 1.613532e-38
0.088066667 0.32836288 1.3210001 1.7517542e-38
0.094476208 0.32541907 1.3226669 1.7702651e-38
0.10229144 0.32202861 1.3260001 1.7051871e-38
0.1069381 0.31074953 1.3210001 1.3227918e-38
0.10973048 0.30396605 1.3243335 1.2773758e-38
0.10840216 0.29494905 1.3235002 1.2981538e-38
0.11365715 0.29550856 1.3260001 1.1494891e-38
0.10746469 0.28476912 1.3246366 1.0401567e-38
0.11618286 0.2866686 1.3260002 1.1889631e-38
0.12249715 0.28540573 1.3260001 1.3185424e-38
0.10842532 0.2758441 1.3260001 1.0118471e-38
0.10636921 0.26570863 1.3243335 1.1144848e-38
0.098550797 0.25119972 1.3210001 1.2171991e-38
0.10264229 0.25546631 1.3240002 1.2266689e-38
0.0079869851 0.24510573 1.3243334 9.864945e-39
0.012841145 0.24198782 1.3220001 9.5905133e-39
0.097271346 0.24414425 1.3232729 1.1893603e-38
0.10229144 0.2449943 1.3260001 1.2168392e-38
0.01831143 0.23678572 1.3260001 9.6823474e-39
0.024576511 0.23339622 1.3235002 9.4983149e-39
0.032710478 0.23023143 1.3210001 9.7745388e-39
0.086137973 0.2314343 1.3217144 1.1432615e-38
0.094916619 0.23567472 1.3248889 1.1800319e-38
0.10313334 0.23783812 1.3260001 1.2811607e-38
0.026239365 0.2266127 1.3260001 9.4972331e-39
0.035052825 0.2241938 1.3240001 9.7738172e-39
0.044055782 0.22172357 1.3217144 9.9589203e-39
0.054817013 0.22124505 1.3210001 1.0326266e-38
0.065897457 0.22202931 1.3221112 1.0786893e-38
0.075629056 0.22436237 1.3235002 1.1156034e-38
0.085835598 0.22720656 1.3253751 1.1617726e-38
0.092188574 0.22857715 1.3260001 1.180211e-38
0.036622863 0.21703103 1.3260001 1.0141518e-38
0.045546457 0.21549666 1.3256155 1.0235511e-38
0.055565726 0.21594857 1.3260002 1.0419903e-38
0.065163434 0.21645375 1.3260001 1.0696141e-38
0.073245719 0.21721144 1.3260001 1.1249303e-38
0.0055560959 0.13305517 1.3255001 1.3921885e-38
0.014809872 0.13237038 1.3260002 1.4664863e-38
0.037885714 0.13386287 1.3260001 9.1381924e-39
0.042937145 0.13260001 1.3260002 1.3374518e-38
0.007018913 0.12540369 1.3224287 1.5303391e-38
0.015122144 0.12475105 1.3230835 1.4661623e-38
0.023152385 0.12460192 1.3260002 1.1985792e-38
0.039148573 0.12502286 1.3260001 3.9662128e-39
0.044809408 0.12496512 1.3253752 6.3608174e-39
0.053040005 0.12502286 1.3260001 8.1054032e-39
0.069195241 0.12706763 1.3210001 1.7154493e-38
0.0079941284 0.11694937 1.3251669 1.6873237e-38
0.014867431 0.11620178 1.3233333 1.4753823e-38
0.025202781 0.11719057 1.3230835 1.3643859e-38
0.034400143 0.11797757 1.3238573 7.3688064e-39
0.0088400003 0.10860572 1.3260001 1.6781042e-38
0.012779049 0.10639266 1.323143 1.576581e-38
0.013865239 0.085710004 1.3235002 1.7334174e-38
0.016355239 0.071711436 1.3210001 1.0049296e-38
0.01887143 0.065420955 1.3210001 1.2815532e-38
0.023589287 0.063848339 1.3210001 1.0970536e-38
0.01887143 0.059130482 1.3210001 1.2725874e-38
0.026105478 0.057557862 1.3210001 1.1526963e-38
0.026483495 0.041621909 1.3243335 7.3573214e-39
0.029045716 0.039148573 1.3260001 6.5351067e-39
0.031531747 0.034051113 1.3243335 6.9924723e-39
0.089324765 0.031452384 1.3210001 8.2028747e-39
0.095583625 0.03354248 1.3240002 7.5607619e-39
0.10517064 0.034916032 1.3251668 9.4961359e-39
0.035293333 0.023946667 1.3235002 6.8167341e-39
0.07842128 0.022226352 1.3210001 8.7553562e-39
0.085414723 0.025335586 1.324182 8.3876569e-39
0.092188574 0.029045716 1.3260001 8.2961634e-39
0.039000954 0.01887143 1.3210001 4.5208229e-39
0.044114288 0.013236191 1.3235002 6.4486298e-39
0.076232389 0.014431796 1.322154 1.0787247e-38
0.085000008 0.014862859 1.3260001 1.180284e-38
0.046413422 0.0046979226 1.3237275 1.0142228e-38
0.051581908 0.0012580954 1.3210001 1.0512088e-38
0.069195241 0.005032381 1.3210001 9.9625356e-39
0.075632147 0.0050395243 1.3234999 1.18043e-38
0.085032389 0.0058933343 1.3260002 1.3002124e-38
0.16837844 0.54245847 1.3360002 1.2357858e-38
0.16782878 0.53497857 1.3330002 5.7979186e-39
0.077615239 0.33718094 1.3360001 1.3459811e-38
0.087465718 0.33338383 1.3310001 1.6595942e-38
0.09161143 0.33336383 1.3360001 1.7241311e-38
0.097973339 0.32954669 1.3360001 1.7425706e-38
0.10267715 0.32451048 1.3310001 1.7056553e-38
0.11450826 0.30296099 1.3310001 1.2132352e-38
0.12042382 0.30042574 1.3310001 1.1771169e-38
0.11738153 0.29332709 1.3310002 1.1577398e-38
0.12042382 0.29535529 1.3310001 1.1869119e-38
0.1158604 0.28343961 1.3310002 1.1422158e-38
0.12042382 0.28141144 1.3310001 1.2259477e-38
0.11503144 0.27386647 1.3317693 1.1150641e-38
0.12072541 0.27575907 1.3343334 1.3456226e-38
0.10774763 0.26366478 1.3310001 1.2542199e-38
0.11207691 0.26447216 1.3335001 1.1886402e-38
0.1066611 0.25551581 1.3310002 1.2356735e-38
0.11196953 0.2557486 1.3360002 1.2164029e-38
0.0076140477 0.24234025 1.3322501 9.2210077e-39
0.10648 0.24591811 1.3310002 1.2630081e-38
0.11112794 0.2467632 1.3310002 1.336764e-38
0.0089066671 0.23539048 1.3360001 8.9455012e-39
0.013959795 0.23464033 1.332786 9.3135649e-39
0.096761599 0.23281938 1.3310001 1.2260591e-38
0.101156 0.2340025 1.3310002 1.2998149e-38
0.017154129 0.22513857 1.3343337 9.4975904e-39
0.024084765 0.22328207 1.3310002 9.3139264e-39
0.079014927 0.22267842 1.3310001 1.1433699e-38
0.085328341 0.2223562 1.3322501 1.15284e-38
0.093903147 0.22460537 1.3324287 1.2632608e-38
0.10014191 0.22690383 1.3310001 1.4474352e-38
0.019085715 0.21757714 1.3360001 9.6812558e-39
0.025642734 0.21606943 1.3330002 9.4057577e-39
0.034507412 0.21366425 1.3310002 9.9571392e-39
0.045211755 0.21169239 1.3310001 1.0143681e-38
0.05577524 0.21169239 1.3310001 1.0787615e-38
0.066761278 0.21253745 1.3310002 1.0973081e-38
0.075811669 0.21506028 1.3322501 1.1341137e-38
0.082627386 0.21800739 1.3347502 1.1249293e-38
0.028416511 0.20909463 1.3360002 9.6816355e-39
0.035861462 0.20627609 1.3353336 1.0142245e-38
0.045687556 0.20559151 1.3325627 1.0327714e-38
0.055842802 0.2055921 1.3325626 1.1063834e-38
0.065567844 0.20632158 1.3349289 1.1432978e-38
0.037464555 0.19523978 1.3360002 1.060323e-38
0.04572089 0.1960315 1.3360004 1.1156756e-38
0.05445791 0.19671009 1.3360003 1.1617012e-38
0.062346671 0.19976382 1.3360001 1.180105e-38
0.037747305 0.18746415 1.3360002 9.9621755e-39
0.045551244 0.18729447 1.3360003 1.1066008e-38
0.054712385 0.18495792 1.3360003 1.1342236e-38
0.062346671 0.18195049 1.3360001 1.097239e-38
0.019085715 0.17177144 1.3360001 1.0417033e-38
0.026211051 0.17228039 1.3360001 1.1345462e-38
0.034071535 0.17488168 1.3360002 1.2724784e-38
0.054348849 0.17758803 1.3360002 1.069433e-38
0.019085715 0.16540954 1.3360001 7.9306318e-39
0.025386309 0.16502264 1.3328753 9.2213749e-39
0.035572205 0.16514078 1.3338127 1.3003926e-38
0.042497527 0.1646461 1.3360001 1.456908e-38
0.026211051 0.15853868 1.3360001 4.613764e-39
0.03617198 0.15559402 1.3360003 5.7223102e-39
0.042497527 0.154976 1.3360001 1.3841216e-38
0.006361905 0.14123431 1.3360002 1.2634724e-38
0.015268572 0.14123429 1.3360001 1.2170147e-38
0.029264765 0.14250667 1.3360001 8.2039439e-39
0.036083885 0.14434335 1.3327861 6.6410211e-39
0.044407543 0.14464706 1.3322504 1.6047798e-38
0.0050704763 0.13817048 1.3310001 1.3375193e-38
0.015972001 0.13766344 1.3310002 1.3093909e-38
0.025371728 0.13446435 1.3319377 1.0604292e-38
0.032958098 0.13436763 1.3310002 3.5934814e-39
0.046204086 0.13498096 1.3317144 1.5495341e-38
0.069719046 0.13056476 1.3310001 1.3731392e-38
0.027465083 0.12591684 1.3310002 9.773457e-39
0.034698356 0.1250762 1.3314549 4.2384921e-39
0.046056829 0.12633938 1.3310001 5.8169987e-39
0.051972382 0.12802954 1.3310001 1.0233028e-38
0.067183815 0.12802954 1.3310001 1.5304871e-38
0.019085715 0.044533335 1.3360001 9.0344374e-39
0.021630477 0.041988574 1.3360001 8.0902201e-39
0.027965002 0.035592146 1.3347501 7.169312e-39
0.097606674 0.031690478 1.3310001 8.2961844e-39
0.10140952 0.032958098 1.3310001 8.941544e-39
0.029264765 0.027992383 1.3360001 7.1743455e-39
0.032354049 0.025375001 1.3322501 7.0857582e-39
0.087465718 0.021549525 1.3310001 9.7702116e-39
0.094599217 0.024699122 1.3325388 9.4043116e-39
0.10306286 0.024902318 1.3360002 1.1338981e-38
0.038773097 0.015250716 1.3347501 7.7390127e-39
0.041831434 0.012676191 1.3310001 8.1988376e-39
0.094155125 0.015480191 1.3323336 1.2817353e-38
0.10102705 0.016032001 1.3360001 1.3371605e-38
0.027992383 0.0025447621 1.3360001 9.8653149e-39
0.035877075 0.0042064474 1.3344618 1.1064194e-38
0.041831434 0.0050704763 1.3310001 1.1063829e-38
0.087465718 0.0025352382 1.3310001 1.0601814e-38
0.094262652 0.0049802936 1.3333079 1.2263468e-38
0.1005181 0.0089066671 1.3360001 1.4013725e-38
0.15650858 0.55034572 1.3470001 8.9242127e-39
0.16035716 0.55034572 1.3470001 9.1251827e-39
0.15618786 0.54457289 1.3470001 1.475162e-38
0.16323914 0.54433769 1.3440001 1.300391e-38
0.16469239 0.5363757 1.3457501 8.7535346e-39
0.073122866 0.35022002 1.3470001 6.729188e-39
0.07494536 0.34524846 1.3451251 9.9556609e-39
0.083813339 0.34337813 1.3470001 1.2815565e-38
0.084516197 0.33932617 1.3445001 1.4566203e-38
0.096125007 0.33579788 1.3457501 1.7149837e-38
0.10134573 0.33226004 1.3470001 1.7333867e-38
0.11417429 0.26811716 1.3470001 1.1237469e-38
0.0046911114 0.24271207 1.3436668 9.2195616e-39
0.0061217989 0.2351394 1.345889 9.4965142e-39
0.0072621172 0.22602214 1.345889 9.8649422e-39
0.012362065 0.22423002 1.3428334 9.4975904e-39
0.096214294 0.2219343 1.3470001 1.4659814e-38
0.0083385725 0.2174443 1.3470001 9.8649394e-39
0.015371498 0.21523193 1.3452144 9.2220853e-39
0.022579681 0.21173778 1.342 9.3139222e-39
0.076046661 0.21216382 1.342 1.1432974e-38
0.084437668 0.21487665 1.3451819 1.1430811e-38
0.092554681 0.2176663 1.3460001 1.244714e-38
0.018601431 0.20718144 1.3470001 9.4061179e-39
0.025340574 0.2045425 1.3440001 9.4064794e-39
0.032804444 0.20151302 1.342 9.5901616e-39
0.066460952 0.20066094 1.342 1.2169114e-38
0.074518166 0.20459297 1.3443334 1.2262382e-38
0.081675246 0.20611238 1.3470001 1.281628e-38
0.019242859 0.19114573 1.3470001 9.0269447e-39
0.025604762 0.19463238 1.3445001 9.4968814e-39
0.033230476 0.19554858 1.342 9.8660296e-39
0.047289524 0.19554858 1.342 1.1521941e-38
0.057514284 0.19427048 1.342 1.2171272e-38
0.06390477 0.19427048 1.3419998 1.2631173e-38
0.074372977 0.19490381 1.346375 1.3645319e-38
0.080820009 0.19884287 1.3470001 1.4015891e-38
0.019242859 0.18088287 1.3470001 1.0502373e-38
0.026169186 0.18412171 1.3452144 8.2046726e-39
0.035205718 0.18416193 1.342 8.4805756e-39
0.046267051 0.182512 1.342 1.069362e-38
0.057514284 0.18787999 1.342 1.2173797e-38
0.06426993 0.18422829 1.3419999 1.217092e-38
0.074305721 0.1844743 1.345125 1.3093604e-38
0.081461437 0.18344858 1.3470001 1.2913887e-38
0.015813971 0.17368338 1.3464446 1.0879079e-38
0.025014151 0.17655973 1.3420001 1.0597811e-38
0.038087241 0.17612152 1.342 1.327687e-38
0.046011429 0.17509905 1.342 1.3460547e-38
0.055469334 0.17356534 1.342 1.0137928e-38
0.064023808 0.17414001 1.3445001 8.8547531e-39
0.07413169 0.17468101 1.3466668 1.1065278e-38
0.080820009 0.1770343 1.3470001 1.1709937e-38
0.01464455 0.16479185 1.3436667 7.5614934e-39
0.046650477 0.16711096 1.342 1.4567648e-38
0.053007793 0.1669486 1.3456365 1.3093206e-38
0.019207144 0.15877667 1.3445001 4.4243295e-39
0.026568098 0.15461572 1.3445001 2.2148657e-39
0.031952381 0.15337142 1.342 9.2233325e-40
0.046194013 0.15611021 1.3420001 1.4107731e-38
0.0076804766 0.14469381 1.3445001 9.496119e-39
0.015370477 0.14469381 1.3445001 8.9444026e-39
0.026459208 0.14511827 1.3445001 8.1131916e-39
0.031952381 0.14825904 1.342 3.5934688e-39
0.050031435 0.14496288 1.3470001 1.6500494e-38
0.049845718 0.1367562 1.342 1.5769064e-38
0.054035377 0.13462995 1.3462859 1.3832591e-38
0.067991436 0.1321343 1.3470001 1.0046867e-38
0.056343339 0.1293281 1.3445001 1.1233492e-38
0.062860005 0.12956858 1.3470001 1.2530352e-38
-0.011545715 0.050031431 1.3470001 9.3109963e-39
-0.0032071429 0.057087146 1.3470001 8.1010003e-39
0.0038410886 0.052512113 1.3448573 9.3128362e-39
-0.011545715 0.046182863 1.3470001 9.5900915e-39
-0.0089800004 0.047465719 1.3470001 8.9317769e-39
0.0076971436 0.047465719 1.3470001 8.7589366e-39
0.01537643 0.042936429 1.3457501 8.2785308e-39
0.017410208 0.037569392 1.3470002 8.1899225e-39
0.02432234 0.035495676 1.3442729 7.6331502e-39
0.025978874 0.025513252 1.3456365 7.7411735e-39
0.031952381 0.021727618 1.342 7.4656866e-39
0.10182159 0.025135873 1.342 1.0786163e-38
0.027173251 0.015044417 1.3470001 9.1295198e-39
0.034287013 0.014994199 1.3424546 9.3117474e-39
0.10352572 0.014059047 1.342 1.309467e-38
0.024752699 0.0059763491 1.3445001 9.3142936e-39
0.034508571 0.0089466665 1.342 1.0789047e-38
0.10312775 0.0041603576 1.3451251 1.2346275e-38
0.15373668 0.55487382 1.3565001 1.2156822e-38
0.152835 0.54492122 1.3542501 1.5951995e-38
0.15711477 0.53747904 1.355 1.3091795e-38
0.16462541 0.53429151 1.3540001 1.4747268e-38
0.085914291 0.36194861 1.358 9.311767e-39
0.091826662 0.36213335 1.358 1.0231948e-38
0.076692916 0.35565585 1.3546667 6.7299265e-39
0.085234284 0.35514665 1.3559999 8.6663976e-39
0.094883643 0.3533152 1.3579999 1.3554214e-38
0.078544766 0.34894478 1.3520001 1.1894272e-38
0.085841283 0.34808636 1.3520001 1.2446413e-38
0.095605247 0.34493858 1.3565 1.5950936e-38
0.099146679 0.33864382 1.3520001 1.7150199e-38
0.10335963 0.33533451 1.3532002 1.7149119e-38
-0.0021536509 0.24235938 1.3559999 1.1158184e-38
0.0021460319 0.24164319 1.3520001 9.9596392e-39
-0.0036380959 0.2343737 1.3541819 1.170993e-38
0.0012876191 0.23434669 1.3520001 1.0877654e-38
-0.0036438103 0.22521091 1.3569092 1.4106277e-38
0.0025752382 0.22404574 1.3520001 1.1247148e-38
-0.0033626668 0.21469334 1.3579999 1.410593e-38
0.0040980098 0.21450046 1.3530911 1.2170178e-38
0.011588573 0.21245715 1.3520001 9.2220993e-39
0.087558106 0.21245715 1.3520001 1.2351685e-38
0.094425403 0.2150324 1.3520001 1.3830063e-38
-0.0012933334 0.20693333 1.358 1.4105213e-38
0.0051640477 0.20593952 1.3557498 1.3459473e-38
0.014175649 0.20473813 1.3532857 1.0602127e-38
0.087044515 0.20512764 1.3530911 1.3646402e-38
0.093420967 0.20466445 1.3530002 1.4752373e-38
0.0090533337 0.19141334 1.358 1.4289961e-38
0.015787255 0.19495794 1.3556924 1.235384e-38
0.085067354 0.19535118 1.3532859 1.4474717e-38
0.094492644 0.19497751 1.3558182 1.6505172e-38
0.015912065 0.1858286 1.355 1.2538583e-38
0.021889525 0.18799239 1.3520001 9.0355473e-39
0.08605589 0.18584637 1.3520001 1.4754912e-38
0.09485276 0.18504763 1.3529233 1.4938216e-38
0.01545143 0.17897905 1.3520001 1.3736762e-38
0.078544766 0.17125334 1.3520001 1.1157466e-38
0.085534707 0.17474832 1.352 1.1801775e-38
0.094881035 0.17634624 1.3561538 1.2724792e-38
0.10172191 0.17897905 1.3520001 1.4382869e-38
-0.0012933334 0.16684 1.358 1.373931e-38
0.0052992599 0.16462667 1.3540001 9.7731137e-39
0.012464128 0.16204891 1.3540001 6.0824215e-39
0.054901715 0.16418783 1.3532002 9.4990267e-39
0.064904764 0.16720572 1.3540001 3.9655135e-39
0.075081043 0.16592908 1.3538462 9.6852257e-39
0.085197516 0.16522273 1.3553747 1.1156759e-38
0.092688881 0.16856447 1.3580002 1.1156031e-38
0.016800955 0.15465175 1.3569999 5.0668024e-39
0.023209525 0.15345143 1.3540001 2.1215883e-39
0.051153656 0.15474287 1.3540001 9.6754923e-39
0.085359998 0.15908001 1.358 1.1063843e-38
0.0064666672 0.14744 1.358 7.2830834e-39
0.015472859 0.14824049 1.3535001 5.6282424e-39
0.023969145 0.14666249 1.3532002 6.2707294e-39
0.055200715 0.14396882 1.35575 1.4106276e-38
0.060786664 0.14097333 1.358 1.0142974e-38
0.057084449 0.13691685 1.3520001 1.3459475e-38
0.063537575 0.13524973 1.3553333 8.3912653e-39
0.070819058 0.13520001 1.3520001 1.160798e-38
-0.012876192 0.054080002 1.3520001 9.034792e-39
-0.0055016452 0.052558273 1.3520002 8.0944801e-39
0.0012876191 0.050217148 1.3520001 8.7510136e-39
-0.011588573 0.042491432 1.3520001 9.501472e-39
-0.0047422228 0.045554083 1.3579999 8.1852422e-39
0.0044646165 0.04358257 1.3552308 7.8150177e-39
0.012876192 0.043779053 1.3520001 8.1809528e-39
0.0064546666 0.035904955 1.3562 7.1692882e-39
0.013877673 0.034765717 1.3520001 7.7375918e-39
0.0090533337 0.028453335 1.358 6.7122645e-39
0.015844628 0.026353197 1.3545716 6.904241e-39
0.021889526 0.024464764 1.3520001 7.3749119e-39
0.018074526 0.015496429 1.35575 7.4678474e-39
0.022404572 0.016224002 1.3520001 8.2061397e-39
0.11465143 0.56153142 1.368 1.4752732e-38
0.12116572 0.56153142 1.368 1.2533935e-38
0.14982858 0.56153142 1.368 1.575677e-38
0.114912 0.55840451 1.368 1.4660539e-38
0.12116572 0.55892569 1.368 1.28094e-38
0.14877747 0.55434096 1.3663334 1.6687745e-38
0.15187715 0.55818093 1.363 1.4286314e-38
0.14774401 0.54407316 1.368 1.6229325e-38
0.15187715 0.54260379 1.363 1.3272244e-38
0.11074285 0.53026283 1.368 9.9553498e-39
0.12768 0.53286856 1.368 1.4931363e-38
0.13514182 0.5326317 1.368 1.4476147e-38
0.14647838 0.53379917 1.3680001 1.4380723e-38
0.15527768 0.53412646 1.3658125 1.207691e-38
0.1641911 0.53156698 1.3646667 1.4112767e-38
0.17352775 0.53197253 1.367375 1.1234521e-38
0.13549715 0.52505147 1.368 1.4018067e-38
0.14592001 0.52505141 1.368 1.3924061e-38
0.15504 0.52505141 1.368 1.2815555e-38
0.16253144 0.52472568 1.368 1.2263112e-38
0.11856001 0.51723427 1.368 1.0417044e-38
0.1250743 0.51462859 1.368 1.0787259e-38
0.13549714 0.51593143 1.368 1.1341521e-38
0.14592001 0.51593143 1.368 1.19858e-38
0.15504001 0.51593149 1.368 1.1986158e-38
0.16350858 0.51528001 1.368 1.180212e-38
0.12637715 0.50854862 1.368 1.0510661e-38
0.13586938 0.50606692 1.3680001 1.0420984e-38
0.14592001 0.50550854 1.368 1.106456e-38
0.15590858 0.50854862 1.368 1.1432625e-38
0.16459429 0.50854856 1.368 1.1341497e-38
0.13940571 0.49899432 1.368 1.0052922e-38
0.089897141 0.36870858 1.368 1.0511033e-38
0.095974296 0.36477759 1.3644286 1.217308e-38
0.10292571 0.36349714 1.368 1.5125152e-38
0.097876385 0.35801467 1.363 1.3831884e-38
0.10485981 0.35437638 1.3660001 1.4845661e-38
0.10536317 0.34556279 1.3657777 1.6596655e-38
0.11074285 0.34134859 1.368 1.5952708e-38
0.10774191 0.33620667 1.3630002 1.696328e-38
0.11074285 0.33483431 1.368 1.6505169e-38
0.11074285 0.32701719 1.368 1.3708382e-38
0.11812667 0.31024477 1.363 1.2408941e-38
-0.006490476 0.2219743 1.363 1.4015158e-38
-0.006490476 0.2193781 1.363 1.4106276e-38
0.0064904764 0.20120476 1.3630002 1.4289237e-38
0.0069350796 0.1972373 1.3655 1.4380716e-38
0.011682857 0.19731048 1.363 1.4473271e-38
-0.0035798806 0.16295725 1.366125 1.3186493e-38
0.0047596828 0.1622619 1.3630002 8.4813029e-39
0.057502475 0.16209601 1.3660001 2.9459624e-39
0.065023333 0.16255665 1.3655 3.4105292e-39
0.073407859 0.16175929 1.3642499 6.4609136e-39
0.089897141 0.16025144 1.368 1.1801765e-38
0.092502862 0.16546287 1.368 1.143186e-38
-0.0035828571 0.15536574 1.368 1.1429366e-38
0.0051965481 0.15598454 1.3648751 6.8217549e-39
0.014279046 0.15562719 1.363 5.7128935e-39
0.055523492 0.15571809 1.3663334 6.1688185e-39
0.069051422 0.15764572 1.368 3.3186881e-39
0.076075479 0.15800548 1.3655 8.2987053e-39
0.082645401 0.15793493 1.3630002 1.0512465e-38
-0.0026057144 0.14852571 1.368 1.1891049e-38
0.0032464284 0.14876881 1.3642501 6.7281034e-39
0.057620317 0.1485981 1.3646667 1.1619153e-38
0.064434677 0.14578786 1.3667501 1.08805e-38
0.067627139 0.13915095 1.3655 1.0330568e-38
-0.0051923813 0.041106354 1.3630002 7.9994202e-39
-0.0048500439 0.035342164 1.3652728 9.9452142e-39
0.0021634921 0.033317782 1.3630002 7.0767184e-39
-0.0021714286 0.029097144 1.368 1.2169058e-38
0.0049827779 0.026215158 1.3650835 7.4555847e-39
0.013002381 0.022108097 1.3655 5.9772008e-39
0.0091200005 0.019542858 1.368 7.0943691e-39
0.013207211 0.016182451 1.3672858 7.0065091e-39
0.096834287 0.56268573 1.3740001 1.1520487e-38
0.10468571 0.56268579 1.3740001 1.4106631e-38
0.12606935 0.56271583 1.3760002 1.2168388e-38
0.13396001 0.56342006 1.3789999 1.3924427e-38
0.14373417 0.5631575 1.3762224 1.4844931e-38
0.096049152 0.55431092 1.3740002 1.2445337e-38
0.10468572 0.55483431 1.3740003 1.5584325e-38
0.11506705 0.55457264 1.3740003 1.5581059e-38
0.12457088 0.55434871 1.3744168 1.3275799e-38
0.13461667 0.55532116 1.3789999 1.5768324e-38
0.14327355 0.55485582 1.3763077 1.6964704e-38
0.095525727 0.54436576 1.3740003 1.143009e-38
0.10468572 0.54436576 1.3740003 1.0790157e-38
0.11515428 0.5443657 1.3740003 1.7152712e-38
0.12562287 0.5443657 1.3740003 1.4011215e-38
0.13454494 0.54400885 1.3740002 1.3741113e-38
0.14197999 0.54436576 1.3740001 1.5769418e-38
0.095891781 0.53495711 1.3758183 1.0320843e-38
0.10441194 0.53495151 1.3743849 7.9259543e-39
0.11551116 0.53544366 1.3740002 1.3652185e-38
0.12509944 0.53520572 1.3740002 1.5950553e-38
0.14132571 0.5378229 1.3740001 1.373501e-38
0.16880572 0.5325886 1.3740001 1.457914e-38
0.098499998 0.52927333 1.3790001 8.0023153e-39
0.10533196 0.52579373 1.3767778 5.2573285e-39
0.11515427 0.5260458 1.3740003 1.0235527e-38
0.12562285 0.5260458 1.3740003 1.2727701e-38
0.16793334 0.52604574 1.3740001 1.2817016e-38
0.17229524 0.52909911 1.3740001 1.3459449e-38
0.10813111 0.51570225 1.3790001 4.1513537e-39
0.11471181 0.51501346 1.3751765 9.4983107e-39
0.12562287 0.51514101 1.3740001 1.0786536e-38
0.15572001 0.51165146 1.3740001 1.1524462e-38
0.16618858 0.51819432 1.3740001 1.1709931e-38
0.10835 0.5030067 1.3790001 7.3686299e-40
0.11574586 0.50453728 1.377611 6.6431342e-39
0.12515983 0.50456768 1.3743129 1.0141879e-38
0.13425945 0.50222969 1.3740001 1.0235155e-38
0.14525144 0.50118291 1.3740001 1.0512464e-38
0.15550941 0.50413287 1.3754288 1.1156384e-38
0.16424294 0.50508654 1.3765002 1.1157459e-38
0.10769334 0.49775338 1.3790001 8.2796701e-40
0.11504801 0.49538937 1.3789999 2.1237477e-39
0.12548827 0.49714863 1.3773333 1.0051487e-38
0.13437144 0.49619198 1.3765001 1.0325911e-38
0.14420477 0.49553519 1.3764999 1.0602507e-38
0.15291373 0.49545357 1.3770001 1.1338274e-38
0.16219667 0.49578336 1.3790001 1.2355648e-38
0.11163334 0.48987332 1.3790001 1.1978173e-39
0.14840667 0.48987332 1.3790001 1.1522317e-38
0.15234667 0.48987332 1.3790001 1.2258807e-38
0.096269295 0.37262785 1.3752501 1.2083037e-38
0.10112667 0.37167335 1.3790001 1.3831919e-38
0.10667391 0.3661482 1.3760002 1.6876493e-38
0.11163334 0.36116666 1.3790001 1.5770165e-38
0.10861143 0.35854858 1.3740001 1.503079e-38
0.11208762 0.35395718 1.3765001 1.5121897e-38
0.1147637 0.34460634 1.377125 1.4752022e-38
0.11646285 0.3346374 1.3740002 1.4474714e-38
0.12476667 0.33490002 1.3789999 1.2630092e-38
0.13439779 0.33358669 1.3790001 1.1597255e-38
0.11670078 0.32488263 1.3740002 1.324992e-38
0.12465596 0.32541022 1.3777499 1.2255176e-38
0.13054535 0.32491866 1.3790001 9.850506e-39
0.11849652 0.31787878 1.3773334 1.2593698e-38
0.12301557 0.3156378 1.3790001 1.2139932e-38
